ply
format ascii 1.0
comment Created by Open3D
element vertex 1510
property double x
property double y
property double z
property uchar red
property uchar green
property uchar blue
end_header
517.13 497.382 403.818 255 0 0
504.399 497.934 396.283 255 0 0
509.849 499.294 402.842 255 0 0
513.71 495.284 401.509 255 0 0
527.996 496.398 399.671 255 0 0
524.454 495.751 401.772 255 0 0
510.523 499.088 396.097 255 0 0
501.855 503.059 403.319 255 0 0
522.614 504.895 399.861 255 0 0
507.472 499.243 404.955 255 0 0
507.983 502.615 398.961 255 0 0
518.281 498.403 400.12 255 0 0
501.375 499.432 397.97 255 0 0
510.34 496.039 396.363 255 0 0
513.942 504.091 402.683 255 0 0
515.967 498.627 401.54 255 0 0
511.028 504.138 403.314 255 0 0
521.489 500.822 397.387 255 0 0
506.109 499.246 399.276 255 0 0
519.402 501.121 403.405 255 0 0
516.937 502.024 397.573 255 0 0
527.498 501.503 401.313 255 0 0
515.786 496.015 395.943 255 0 0
503.509 497.627 397.832 255 0 0
503.125 495.254 402.929 255 0 0
522.651 498.13 397.028 255 0 0
511.543 499.575 398.075 255 0 0
507.581 502.976 402.114 255 0 0
529.403 502.361 396.517 255 0 0
522.472 501.704 401.024 255 0 0
513.205 497.696 402.47 255 0 0
525.091 497.274 402.08 255 0 0
524.275 504.807 402.66 255 0 0
500.498 502.302 404.174 255 0 0
519.737 503.151 400.875 255 0 0
503.032 503.337 400.408 255 0 0
502.278 501.437 400.323 255 0 0
506.218 497.914 403.312 255 0 0
526.393 498.063 396.793 255 0 0
513.422 502.069 400.241 255 0 0
522.904 500.438 396.742 255 0 0
514.485 501.464 397.159 255 0 0
511.609 495.822 400.589 255 0 0
501.758 501.309 396.984 255 0 0
510.871 496.319 399.117 255 0 0
525.595 495.296 404.055 255 0 0
523.351 496.474 395.513 255 0 0
514.747 498.783 402.263 255 0 0
521.18 497.108 404.029 255 0 0
518.274 500.788 395.208 255 0 0
522.798 503.277 400.109 255 0 0
506.957 499.618 403.953 255 0 0
527.802 499.66 397.739 255 0 0
524.968 502.208 401.721 255 0 0
516.264 502.38 399.857 255 0 0
518.456 504.61 401.941 255 0 0
520.028 497.111 399.691 255 0 0
524.236 503.099 403.579 255 0 0
529.856 501.684 399.496 255 0 0
522.109 496.316 401.545 255 0 0
528.207 501.56 398.71 255 0 0
524.515 496.095 402.176 255 0 0
512.637 502.269 402.103 255 0 0
518.947 499.404 395.102 255 0 0
501.702 499.475 395.691 255 0 0
513.218 503.623 402.79 255 0 0
524.521 501.025 403.874 255 0 0
509.257 497.065 399.838 255 0 0
500.632 496.919 397.242 255 0 0
528.335 499.427 397.274 255 0 0
512.47 496.738 396.137 255 0 0
506.253 496.264 395.212 255 0 0
521.229 499.051 402.548 255 0 0
522.754 496.168 400.741 255 0 0
521.482 495.895 397.236 255 0 0
504.483 504.88 395.629 255 0 0
500.601 500.211 395.424 255 0 0
503.178 502.614 402.971 255 0 0
515.298 496.098 399.926 255 0 0
516.634 501.486 400.151 255 0 0
522.007 500.152 399.884 255 0 0
519.055 499.899 400.944 255 0 0
502.31 504.04 395.517 255 0 0
510.615 502.6 395.485 255 0 0
508.365 502.759 399.823 255 0 0
509.368 502.404 402.958 255 0 0
519.669 499.63 402.72 255 0 0
507.39 496.665 403.731 255 0 0
517.949 497.982 402.666 255 0 0
518.387 496.034 401.861 255 0 0
526.393 504.976 401.507 255 0 0
517.363 499.765 395.411 255 0 0
511.551 498.809 396.54 255 0 0
506.953 499.349 404.6 255 0 0
515.046 498.797 403.652 255 0 0
517.879 503.3 397.995 255 0 0
522.903 503.342 397.717 255 0 0
506.368 499.478 403.618 255 0 0
528.231 503.938 401.17 255 0 0
529.004 500.089 403.827 255 0 0
504.151 502.783 403.935 255 0 0
526.151 495.66 403.557 255 0 0
509.574 503.536 395.476 255 0 0
529.1 495.166 397.267 255 0 0
506.936 501.593 402.97 255 0 0
520.835 499.745 400.018 255 0 0
524.983 504.553 400.537 255 0 0
522.089 497.111 398.099 255 0 0
503.203 496.282 404.532 255 0 0
508.591 500.566 403.648 255 0 0
518.829 499.565 400.195 255 0 0
501.929 504.55 404.065 255 0 0
522.879 495.869 403.589 255 0 0
506.966 502.528 401.271 255 0 0
526.325 504.832 396.001 255 0 0
519.163 497.04 399.496 255 0 0
526.859 503.071 398.528 255 0 0
512.483 497.615 401.51 255 0 0
514.424 499.656 395.716 255 0 0
502.251 496.059 402.78 255 0 0
502.731 500.709 401.135 255 0 0
517.69 501.379 402.142 255 0 0
501.175 496.005 404.965 255 0 0
512.135 504.138 398.372 255 0 0
519.356 497.353 396.165 255 0 0
529.423 495.897 398.655 255 0 0
503.255 501.683 398.956 255 0 0
525.982 498.031 399.293 255 0 0
517.248 501.279 403.77 255 0 0
506.145 500.551 403.546 255 0 0
508.727 497.956 403.489 255 0 0
517.608 498.811 397.638 255 0 0
522.602 499.744 400.556 255 0 0
528.362 503.648 395.165 255 0 0
526.934 502.85 403.923 255 0 0
521.001 496.477 395.637 255 0 0
505.874 497.424 400.171 255 0 0
524.893 500.554 396.632 255 0 0
505.53 498.589 397.857 255 0 0
511.885 496.827 403.857 255 0 0
506.616 496.761 400.316 255 0 0
502.671 495.643 396.439 255 0 0
525.756 498.109 397.074 255 0 0
507.566 503.047 397.382 255 0 0
529.807 498.939 404.312 255 0 0
514.918 501.043 404.158 255 0 0
527.019 496.152 404.416 255 0 0
525.324 499.017 403.886 255 0 0
517.007 503.959 396.926 255 0 0
504.502 504.426 397.972 255 0 0
500.54 500.591 399.006 255 0 0
519.562 495.802 402.025 255 0 0
521.473 499.454 399.294 255 0 0
521.927 502.421 395.518 255 0 0
515.47 496.38 401.559 255 0 0
519.377 504.167 401.812 255 0 0
504.863 495.768 399.262 255 0 0
500.84 495.312 404.318 255 0 0
502.865 498.473 400.913 255 0 0
507.585 497.612 397.172 255 0 0
528.182 502.07 403.744 255 0 0
509.25 502.023 399.644 255 0 0
507.969 495.164 401.206 255 0 0
523.87 500.054 404.673 255 0 0
503.362 501.157 397.223 255 0 0
529.39 498.26 396.573 255 0 0
514.523 499.817 403.553 255 0 0
509.259 501.085 399.228 255 0 0
528.978 500.714 402.794 255 0 0
526.148 501.936 398.372 255 0 0
528.964 500.177 400.319 255 0 0
513.61 501.534 396.71 255 0 0
511.286 495.033 395.684 255 0 0
511.35 501.297 397.866 255 0 0
518.221 501.99 403.168 255 0 0
513.595 495.905 398.085 255 0 0
507.616 500.964 398.245 255 0 0
527.19 497.021 402.25 255 0 0
520.947 500.013 395.984 255 0 0
504.174 504.898 399.784 255 0 0
513.402 496.422 395.527 255 0 0
502.272 501.483 403.77 255 0 0
501.677 497.731 404.232 255 0 0
524.414 498.766 402.892 255 0 0
527.108 503.255 399.997 255 0 0
517.193 501.382 397.754 255 0 0
502.226 500.615 400.588 255 0 0
507.025 498.916 399.932 255 0 0
515.548 497.472 396.89 255 0 0
522.466 503.012 397.226 255 0 0
516.425 501.599 401.801 255 0 0
513.79 503.771 397.185 255 0 0
512.74 504.564 397.641 255 0 0
520.85 503.514 404.459 255 0 0
506.636 500.836 396.069 255 0 0
505.329 496.347 403.11 255 0 0
507.507 499.321 402.935 255 0 0
510.064 497.786 398.838 255 0 0
525.493 501.387 398.124 255 0 0
529.017 497.07 395.119 255 0 0
507.811 504.068 395.132 255 0 0
502.621 499.875 396.912 255 0 0
523.991 499.771 397.215 255 0 0
510.07 500.144 403.406 255 0 0
502.41 495.191 395.895 255 0 0
520.033 496.437 402.435 255 0 0
517.894 498.172 397.399 255 0 0
505.108 502.669 395.106 255 0 0
529.639 501.531 401.872 255 0 0
515.657 501.393 402.592 255 0 0
502.995 496.505 396.296 255 0 0
527.863 502.654 401.229 255 0 0
514.917 498.744 396.57 255 0 0
516.546 499.204 400.779 255 0 0
509.827 501.967 396.659 255 0 0
513.386 500.078 399.522 255 0 0
517.591 497.138 404.806 255 0 0
514.895 499.353 403.866 255 0 0
508.959 495.094 395.921 255 0 0
517.061 495.188 402.837 255 0 0
503.393 499.341 395.076 255 0 0
507.897 498.233 404.976 255 0 0
523.301 495.162 397.415 255 0 0
524.823 498.05 401.09 255 0 0
503.886 503.731 395.282 255 0 0
521.333 495.234 395.551 255 0 0
520.435 499.895 400.717 255 0 0
502.158 495.844 396.921 255 0 0
509.321 502.912 400.712 255 0 0
524.057 502.407 400.807 255 0 0
503.605 499.192 398.629 255 0 0
515.286 499.835 404.592 255 0 0
521.26 495.767 397.741 255 0 0
524.563 500.325 398.773 255 0 0
514.294 496.289 396.564 255 0 0
506.484 495.341 400.365 255 0 0
523.145 498.148 400.108 255 0 0
514.211 500.689 404.796 255 0 0
527.619 503.383 398.548 255 0 0
526.789 496.919 400.517 255 0 0
507.327 496.307 403.723 255 0 0
529.143 500.986 404.095 255 0 0
502.833 504.182 397.872 255 0 0
513.458 501.679 399.866 255 0 0
515.274 499.611 399.587 255 0 0
516.499 496.159 396.157 255 0 0
504.775 504.16 403.948 255 0 0
511.702 504.569 402.638 255 0 0
520.955 502.428 403.274 255 0 0
524.964 495.077 401.143 255 0 0
517.104 495.037 396.024 255 0 0
501.971 503.207 399.356 255 0 0
514.787 498.641 402.305 255 0 0
520.206 503.459 400.637 255 0 0
527.273 497.902 401.54 255 0 0
503.354 497.462 399.517 255 0 0
517.532 500.167 403.631 255 0 0
504.622 498.966 399.127 255 0 0
516.444 495.255 396.5 255 0 0
510.772 498.534 400.275 255 0 0
505.018 504.142 400.791 255 0 0
525.671 504.414 402.523 255 0 0
505.373 501.378 395.595 255 0 0
518.653 497.529 400.408 255 0 0
506.953 495.564 400.356 255 0 0
500.649 496.762 397.837 255 0 0
525.942 501.948 400.464 255 0 0
506.486 500.741 396.148 255 0 0
522.917 495.129 399.296 255 0 0
505.657 500.422 397.776 255 0 0
515.787 503.148 396.008 255 0 0
504.944 501.33 404.643 255 0 0
518.995 500.042 397.776 255 0 0
518.95 501.697 404.738 255 0 0
501.388 500.116 395.313 255 0 0
519.504 500.471 399.779 255 0 0
511.089 501.697 398.749 255 0 0
525.261 504.048 395.983 255 0 0
508.624 495.581 395.564 255 0 0
516.819 495.256 402.51 255 0 0
510.194 498.219 395.285 255 0 0
507.536 501.087 398.983 255 0 0
516.276 496.451 396.435 255 0 0
507.886 500.731 404.143 255 0 0
516.887 500.402 399.216 255 0 0
503.914 496.538 399.831 255 0 0
505.355 499.686 398.173 255 0 0
512.089 502.716 402.26 255 0 0
511.082 495.298 399.436 255 0 0
508.883 501.755 397.974 255 0 0
513.849 503.593 400.495 255 0 0
506.465 495.59 401.468 255 0 0
522.865 497.715 400.846 255 0 0
515.375 499.23 397.127 255 0 0
521.09 499.466 397.593 255 0 0
527.599 501.717 404.7 255 0 0
511.419 503.896 399.761 255 0 0
511.868 496.805 398.543 255 0 0
524.489 495.179 400.931 255 0 0
511.064 502.792 402.084 255 0 0
512.782 501.694 399.277 255 0 0
508.842 503.088 404.182 255 0 0
524.111 502.242 403.786 255 0 0
517.587 503.378 395.596 255 0 0
513.895 498.207 398.694 255 0 0
510.598 496.761 397.284 255 0 0
521.117 503.579 404.726 255 0 0
502.904 498.885 401.084 255 0 0
527.389 500.47 397.438 255 0 0
512.899 497.458 397.522 255 0 0
501.716 496.445 403.967 255 0 0
511.895 499.329 404.36 255 0 0
514.135 504.463 395.796 255 0 0
527.185 498.551 400.283 255 0 0
525.954 499.683 396.456 255 0 0
529.706 503.356 395.668 255 0 0
517.022 504.358 399.11 255 0 0
510.484 498.366 403.379 255 0 0
519.884 500.475 403.054 255 0 0
507.831 501.749 396.546 255 0 0
504.562 498.174 403.694 255 0 0
523.498 498.883 404.559 255 0 0
501.498 500.815 395.197 255 0 0
516.238 495.588 404.178 255 0 0
505.842 496.271 401.453 255 0 0
511.455 504.596 403.888 255 0 0
510.763 500.915 404.468 255 0 0
519.717 503.6 401.264 255 0 0
519.281 496.158 400.243 255 0 0
514.612 500.332 398.79 255 0 0
500.492 503.677 396.622 255 0 0
526.93 501.693 398.902 255 0 0
511.741 498.141 395.394 255 0 0
528.964 495.44 395.884 255 0 0
521.163 502.34 398.56 255 0 0
520.373 503.387 398.114 255 0 0
527.362 500.271 398.695 255 0 0
502.078 498.463 403.592 255 0 0
525.426 501.723 401.607 255 0 0
505.779 504.057 401.683 255 0 0
506.199 496.956 403.576 255 0 0
504.106 495.793 397.026 255 0 0
508.01 501.296 399.021 255 0 0
524.018 496.351 398.053 255 0 0
527.029 496.053 399.202 255 0 0
524.292 497.813 402.686 255 0 0
511.923 503.513 398.408 255 0 0
522.879 502.637 398.37 255 0 0
527.698 496.352 404.313 255 0 0
510.174 497.51 399.964 255 0 0
514.855 497.595 396.01 255 0 0
515.73 502.941 398.093 255 0 0
504.459 496.593 395.933 255 0 0
508.457 502.431 398.871 255 0 0
500.72 501.083 402.989 255 0 0
515.75 503.008 397.05 255 0 0
523.453 502.497 404.216 255 0 0
521.369 497.326 401.104 255 0 0
514.837 501.3 402.218 255 0 0
502.044 498.7 400.507 255 0 0
519.53 498.137 399.662 255 0 0
517.098 499.028 403.674 255 0 0
501.446 498.405 399.686 255 0 0
527.76 495.735 398.998 255 0 0
521.818 500.995 396.739 255 0 0
509.764 498.65 399.133 255 0 0
511.235 502.336 403.055 255 0 0
512.803 497.363 398.755 255 0 0
507.021 497.175 398.251 255 0 0
520.354 496.276 404.536 255 0 0
526.349 504.62 399.801 255 0 0
526.799 496.421 403.407 255 0 0
518.092 497.664 400.77 255 0 0
502.581 500.858 400.738 255 0 0
527.488 499.565 402.379 255 0 0
524.307 500.855 402.364 255 0 0
513.54 499.191 396.959 255 0 0
510.88 499.927 403.763 255 0 0
516.497 501.436 395.681 255 0 0
522.175 500.807 398.308 255 0 0
504.94 498.862 399.571 255 0 0
501.222 497.697 396.547 255 0 0
509.257 498.735 402.516 255 0 0
511.482 498.187 399.629 255 0 0
504.451 499.17 397.434 255 0 0
510.706 502.684 400.222 255 0 0
517.634 498.943 399.521 255 0 0
515.235 502.613 395.564 255 0 0
506.014 504.241 402.568 255 0 0
501.477 501.249 396.969 255 0 0
520.69 501.937 401.65 255 0 0
510.291 495.382 403.308 255 0 0
516.565 501.794 404.498 255 0 0
524.16 500.22 399.743 255 0 0
529.199 499.516 396.771 255 0 0
527.149 499.355 395.453 255 0 0
523.1 497.095 397.256 255 0 0
504.341 496.199 397.504 255 0 0
526.866 501.033 399.299 255 0 0
506.334 497.439 398.529 255 0 0
505.397 496.783 402.226 255 0 0
504.755 504.323 400.573 255 0 0
511.884 503.722 404.591 255 0 0
515.224 500.737 404.354 255 0 0
521.837 501.584 395.632 255 0 0
511.072 500.781 402.815 255 0 0
508.915 504.5 397.763 255 0 0
520.786 496.678 402.388 255 0 0
527.367 498.734 398.263 255 0 0
502.277 497.383 397.989 255 0 0
521.112 499.885 401.491 255 0 0
515.873 499.33 397.932 255 0 0
524.658 502.849 402.314 255 0 0
502.228 496.192 401.511 255 0 0
521.908 499.065 400.998 255 0 0
527.191 497.2 399.738 255 0 0
529.533 503.719 397.254 255 0 0
513.955 504.333 396.386 255 0 0
500.242 500.348 398.851 255 0 0
506.885 501.555 402.984 255 0 0
517.32 495.998 398.168 255 0 0
512.901 503.385 396.489 255 0 0
523.626 497.889 402.392 255 0 0
514.882 495.954 399.941 255 0 0
502.622 498.549 398.956 255 0 0
527.661 500.5 403.338 255 0 0
513.316 502.067 402.408 255 0 0
519.097 498.993 402.928 255 0 0
510.586 495.752 399.328 255 0 0
522.622 495.661 402.691 255 0 0
528.643 503.494 400.845 255 0 0
511.008 502.103 400.594 255 0 0
515.318 498.926 403.23 255 0 0
523.835 501.395 401.012 255 0 0
522.524 496.207 404.752 255 0 0
524.64 502.112 404.149 255 0 0
518.528 504.371 396.107 255 0 0
504.673 501.606 398.105 255 0 0
516.587 500.436 397.724 255 0 0
506.849 497.942 404.528 255 0 0
526.097 495.189 398.074 255 0 0
505.226 499.162 399.628 255 0 0
503.51 500.343 398.367 255 0 0
519.424 504.848 399.073 255 0 0
522.676 495.144 403.836 255 0 0
505.658 503.858 396.382 255 0 0
520.732 499.966 396.562 255 0 0
520.091 501.893 399.302 255 0 0
517.437 497.956 402.104 255 0 0
511.905 495.582 398.203 255 0 0
515.049 502.666 402.996 255 0 0
506.682 500.781 403.916 255 0 0
528.123 501.56 397.144 255 0 0
517.43 502.932 402.295 255 0 0
525.277 499.419 397.797 255 0 0
529.373 501.905 403.345 255 0 0
511.046 504.725 397.05 255 0 0
507.503 504.694 404.547 255 0 0
511.564 502.498 398.467 255 0 0
519.154 501.284 401.645 255 0 0
528.309 501.94 404.878 255 0 0
511.034 502.579 401.339 255 0 0
505.834 504.135 401.005 255 0 0
522.685 502.879 403.251 255 0 0
511.001 495.745 401.468 255 0 0
521.123 504.657 402.08 255 0 0
515.64 504.428 403.31 255 0 0
500.583 501.922 400.343 255 0 0
505.563 503.114 397.478 255 0 0
529.784 501.929 404.411 255 0 0
522.708 503.219 403.829 255 0 0
522.338 503.913 402.033 255 0 0
500.433 498.113 398.583 255 0 0
507.848 497.557 401.285 255 0 0
523.767 497.002 395.494 255 0 0
510.709 500.541 403.309 255 0 0
523.635 501.312 395.485 255 0 0
516.091 496.322 399.242 255 0 0
528.91 504.077 399.278 255 0 0
515.95 501.012 403.368 255 0 0
515.579 504.334 398.945 255 0 0
507.468 499.072 404.74 255 0 0
520.586 498.747 399.945 255 0 0
529.613 501.338 400.717 255 0 0
511.396 497.405 398.481 255 0 0
522.637 496.385 400.33 255 0 0
509.997 496.786 400.528 255 0 0
524.524 495.724 399.827 255 0 0
526.648 495.336 403.386 255 0 0
520.874 504.244 397.637 255 0 0
519.957 496.057 401.198 255 0 0
529.009 498.772 395.628 255 0 0
517.77 501.148 398.828 255 0 0
511.116 496.854 397.928 255 0 0
509.963 501.135 396.722 255 0 0
511.409 498.82 395.624 255 0 0
526.641 503.418 399.168 255 0 0
513.181 503.257 404.278 255 0 0
507.664 504.547 402.768 255 0 0
517.065 500.509 403.316 255 0 0
524.434 495.733 397.519 255 0 0
516.634 504.188 397.127 255 0 0
500.408 497.157 399.005 255 0 0
512.712 497.301 403.237 255 0 0
502.672 497.991 401.822 255 0 0
503.007 497.851 403.4 255 0 0
516.371 495.454 397.714 255 0 0
509.62 500.033 401.295 255 0 0
521.87 501.597 400.193 255 0 0
527.777 498.608 396.041 255 0 0
509.845 499.077 399.558 255 0 0
508.877 496.447 395.901 255 0 0
522.773 499.034 401.156 255 0 0
520.899 500.583 402.072 255 0 0
522.151 502.624 400.934 255 0 0
515.01 504.725 395.76 255 0 0
515.814 496.816 403.187 255 0 0
520.819 501.769 404.749 255 0 0
526.959 504.905 399.447 255 0 0
521.283 495.029 403.877 255 0 0
505.576 500.362 395.581 255 0 0
521.865 504.197 402.119 255 0 0
512.045 499.735 397.138 255 0 0
520.235 499.184 401.392 255 0 0
519.771 499.059 402.64 255 0 0
519.939 495.025 403.289 255 0 0
502.529 500.265 398.979 255 0 0
515.76 495.74 397.218 255 0 0
513.693 495.216 398.624 255 0 0
504.296 495.175 396.021 255 0 0
517.166 504.177 400.291 255 0 0
510.883 504.717 402.324 255 0 0
521.293 497.977 395.022 255 0 0
503.176 498.31 403.336 255 0 0
512.933 504.026 395.956 255 0 0
527.309 504.553 396.433 255 0 0
508.264 495.204 402.047 255 0 0
505.49 496.259 400.39 255 0 0
518.999 501.666 396.511 255 0 0
528.236 504.473 403.128 255 0 0
525 500.042 398.937 255 0 0
525.899 495.059 401.746 255 0 0
524.136 498.048 401.471 255 0 0
507.43 501.662 395.381 255 0 0
520.168 499.19 396.604 255 0 0
506.401 504.183 397.76 255 0 0
502.739 503.973 395.185 255 0 0
506.921 498.106 398.054 255 0 0
514.595 501.93 400.685 255 0 0
505.01 503.812 404.912 255 0 0
519.861 503.446 399.328 255 0 0
504.408 496.203 399.05 255 0 0
503.666 499.128 400.736 255 0 0
512.942 499.104 400.211 255 0 0
504.96 501.232 399.47 255 0 0
524.117 501.597 402.488 255 0 0
506.756 497.343 397.401 255 0 0
509.865 501.37 403.922 255 0 0
516.246 501.314 398.676 255 0 0
500.923 503.174 397.754 255 0 0
511.035 496.697 396.815 255 0 0
525.439 496.564 400.147 255 0 0
505.535 503.339 399.019 255 0 0
527.726 504.092 402.52 255 0 0
517.576 504.563 399.803 255 0 0
501.841 503.445 404.678 255 0 0
515.102 499.375 396.344 255 0 0
514.5 495.893 398.492 255 0 0
506.237 504.462 400.366 255 0 0
512.689 504.14 404.586 255 0 0
511.64 496.254 396.699 255 0 0
519.327 501.133 397.923 255 0 0
523.204 500.676 404.132 255 0 0
515.391 503.364 399.886 255 0 0
523.216 500.572 396.214 255 0 0
500.617 496.856 398.963 255 0 0
529.826 496.026 400.256 255 0 0
508.511 495.763 404.912 255 0 0
518.293 496.46 395.962 255 0 0
520.258 497.167 403.071 255 0 0
507.984 498.27 402.985 255 0 0
522.999 500.124 396.527 255 0 0
508.333 501.279 404.215 255 0 0
500.903 502.044 396.123 255 0 0
521.48 501.394 403.653 255 0 0
511.292 499.877 400.25 255 0 0
523.679 500.187 401.359 255 0 0
505.238 501.468 400.149 255 0 0
529.27 500.485 397.632 255 0 0
500.263 501.696 401.562 255 0 0
514.847 498.469 402.392 255 0 0
512.226 499.868 399.57 255 0 0
522.401 503.095 404.567 255 0 0
526.815 499.406 399.374 255 0 0
521.029 495.345 403.334 255 0 0
519.789 498.953 396.367 255 0 0
500.648 495.248 404.897 255 0 0
509.41 499.559 396.667 255 0 0
502.828 496.398 401.08 255 0 0
501.65 504.364 401.413 255 0 0
507.992 499.238 402.048 255 0 0
520.051 498.65 400.626 255 0 0
504.58 504.862 399.784 255 0 0
500.766 501.017 395.479 255 0 0
506.713 502.91 403.866 255 0 0
509.22 504.607 398.903 255 0 0
510.509 495.699 397.088 255 0 0
522.842 495.709 402.584 255 0 0
520.857 497.789 398.264 255 0 0
529.15 499.214 398.053 255 0 0
512.347 498.236 398.717 255 0 0
505.436 502.778 400.854 255 0 0
500.705 500.913 400.637 255 0 0
516.179 502.141 398.587 255 0 0
528.066 497.416 401.785 255 0 0
508.432 502.071 398.316 255 0 0
506.25 499.625 397.209 255 0 0
521.087 504.025 404.138 255 0 0
529.545 504.752 398.024 255 0 0
514.04 501.391 398.86 255 0 0
511.337 503.282 404.195 255 0 0
508.253 502.839 402.347 255 0 0
524.152 499.633 399.227 255 0 0
522.59 503.358 397.289 255 0 0
506.262 497.783 396.849 255 0 0
504.893 502.447 400.975 255 0 0
525.618 502.387 404.125 255 0 0
515.103 501.843 401.758 255 0 0
509.066 498.353 399.187 255 0 0
520.271 502.349 397.145 255 0 0
515.791 502.263 403.558 255 0 0
529.869 497.719 396.348 255 0 0
528.509 495.804 395.662 255 0 0
502.829 496.983 397.121 255 0 0
511.482 497.761 395.989 255 0 0
517.642 496.106 398.706 255 0 0
514.54 495.193 402.202 255 0 0
522.553 496.679 401.822 255 0 0
508.855 495.871 398.13 255 0 0
528.275 495.198 403.697 255 0 0
512.145 496.033 397.515 255 0 0
502.367 503.588 399.388 255 0 0
510.301 501.531 402.357 255 0 0
507.622 495.827 396.551 255 0 0
520.775 500.934 396.393 255 0 0
501.93 504.93 404.618 255 0 0
511.875 498.316 395.315 255 0 0
527.658 498.94 404.058 255 0 0
518.723 502.665 404.208 255 0 0
527.809 504.209 404.689 255 0 0
526.033 496.718 400.577 255 0 0
515.976 501.082 401.423 255 0 0
524.68 502.347 396.89 255 0 0
520.854 500.019 403.067 255 0 0
523.828 498.621 396.642 255 0 0
504.931 500.77 397.469 255 0 0
502.832 497.391 397.177 255 0 0
519.253 502.92 400.352 255 0 0
502.389 500.74 400.57 255 0 0
528.226 497.55 399.294 255 0 0
518.463 498.185 395.174 255 0 0
507.353 498.6 404.632 255 0 0
519.346 497.444 402.18 255 0 0
521.677 504.939 402.393 255 0 0
519.787 497.003 404.753 255 0 0
523.101 499.343 396.318 255 0 0
508.443 497.206 396.022 255 0 0
511.39 504.719 401.24 255 0 0
522.903 501.258 400.247 255 0 0
517.072 503.359 400.66 255 0 0
511.831 498.57 400.782 255 0 0
516.017 497.292 402.663 255 0 0
524.766 498.934 404.971 255 0 0
517.361 503.825 395.514 255 0 0
508.795 495.366 399.395 255 0 0
501.573 497.362 400.674 255 0 0
509.468 502.957 396.936 255 0 0
506.58 503.197 398.643 255 0 0
523.12 500.643 397.232 255 0 0
529.819 498.882 401.321 255 0 0
516.362 499.342 398.284 255 0 0
524.754 504.299 399.078 255 0 0
507.935 497.786 403.647 255 0 0
502.085 501.324 402.703 255 0 0
511.7 497.339 399.111 255 0 0
522.165 498.441 397.253 255 0 0
528.625 501.868 396.782 255 0 0
525.318 496.77 400.074 255 0 0
519.291 499.046 404.282 255 0 0
512.76 496.687 400.503 255 0 0
508.147 498.059 396.911 255 0 0
505.412 498.584 397.067 255 0 0
518.608 500.243 400.259 255 0 0
507.428 496.061 398.79 255 0 0
516.711 495.893 404.587 255 0 0
516.66 500.814 400.925 255 0 0
514.282 497.685 396.002 255 0 0
516.329 495.631 403.117 255 0 0
516.526 496.111 397.486 255 0 0
504.576 498.418 396.994 255 0 0
524.471 497.685 400.336 255 0 0
514.384 498.719 403.371 255 0 0
506.766 501.051 398.589 255 0 0
512.906 497.524 399.918 255 0 0
503.86 496.867 402.66 255 0 0
525.345 498.618 398.286 255 0 0
514.555 495.9 400.475 255 0 0
522.256 499.023 396.384 255 0 0
529.9 499.37 399.123 255 0 0
522.066 495.795 401.813 255 0 0
522.177 499.9 400.043 255 0 0
511.307 496.322 400.537 255 0 0
525.191 496.119 396.139 255 0 0
520.198 496.395 403.197 255 0 0
518.629 503.81 403.4 255 0 0
517.175 504.478 395.111 255 0 0
526.361 495.152 403.714 255 0 0
513.131 501.962 401.161 255 0 0
503.956 500.311 398.371 255 0 0
527.631 498.934 404.759 255 0 0
513.915 503.514 397.915 255 0 0
501.108 504.503 398.291 255 0 0
506.526 500.73 396.651 255 0 0
525.937 503.554 399.196 255 0 0
505.699 499.906 402.231 255 0 0
502.626 496.201 401.481 255 0 0
519.539 501.31 398.812 255 0 0
514.263 504.072 403.53 255 0 0
500.387 502.593 403.257 255 0 0
507.624 495.744 398.187 255 0 0
523.218 504.31 401.661 255 0 0
502.174 496.259 399.092 255 0 0
511.365 503.895 396.799 255 0 0
520.423 501.241 398.735 255 0 0
523.675 504.856 402.107 255 0 0
503.616 499.213 397.26 255 0 0
520.689 499.927 401.542 255 0 0
504.067 496.736 404.942 255 0 0
521.726 499.331 399.768 255 0 0
501.584 503.084 401.841 255 0 0
524.79 498.909 398.932 255 0 0
525.456 501.184 397.583 255 0 0
522.095 495.505 404.866 255 0 0
503.706 497.649 397.882 255 0 0
517.106 496.655 395.611 255 0 0
512.918 497.16 397.681 255 0 0
523.366 504.732 396.529 255 0 0
511.65 502.125 395.41 255 0 0
506.858 501.408 403.291 255 0 0
529.308 497.106 395.906 255 0 0
522.894 498.207 397.623 255 0 0
526.366 496.509 400.706 255 0 0
511.124 499.232 403.06 255 0 0
520.658 496.283 397.72 255 0 0
520.112 501.484 402.777 255 0 0
529.441 502.896 399.666 255 0 0
506.522 502.127 399.049 255 0 0
513.772 500.168 398.815 255 0 0
501.633 501.991 402.617 255 0 0
521.907 501.271 396.459 255 0 0
505.521 499.624 401.426 255 0 0
515.566 500.268 401.017 255 0 0
504.904 501.495 402.563 255 0 0
504.431 502.075 400.768 255 0 0
506.054 501.365 403.508 255 0 0
505.008 502.973 404.42 255 0 0
523.945 500.56 400.977 255 0 0
518.118 495.71 401.691 255 0 0
524.016 496.413 396.071 255 0 0
528.496 499.339 401.105 255 0 0
529.577 502.742 404.888 255 0 0
526.603 502.609 395.625 255 0 0
522.931 499.369 396.073 255 0 0
512.2 501.728 400.509 255 0 0
528.779 502.12 395.19 255 0 0
518.585 498.071 402.668 255 0 0
525.483 500.817 404.379 255 0 0
528.024 502.576 398.542 255 0 0
520.716 498.709 397.038 255 0 0
513.403 497.63 398.561 255 0 0
510.568 497.435 400.746 255 0 0
504.154 496.038 400.82 255 0 0
512.89 503.468 397.044 255 0 0
512.417 503.516 402.58 255 0 0
504.705 498.777 396.226 255 0 0
511.746 499.13 401.663 255 0 0
508.421 497.906 402.5 255 0 0
522.449 503.97 397.625 255 0 0
520.075 495.188 400.196 255 0 0
508.08 499.527 400.92 255 0 0
512.939 495.164 401.249 255 0 0
529.683 503.328 404.203 255 0 0
507.047 498.791 398.391 255 0 0
525.424 499.635 402.363 255 0 0
512.023 503.087 398.269 255 0 0
503.28 497.783 401.245 255 0 0
510.108 504.65 395.079 255 0 0
503.446 498.24 403.94 255 0 0
503.312 499.832 402.636 255 0 0
520.897 497.191 400.634 255 0 0
510.556 495.286 401.258 255 0 0
503.151 496.425 401.194 255 0 0
513.512 503.354 396.532 255 0 0
503.727 502.64 402.347 255 0 0
507.363 503.924 401.713 255 0 0
522.919 500.89 402.752 255 0 0
505.637 500.481 397.087 255 0 0
515.078 497.857 398.251 255 0 0
521.158 504.756 398.341 255 0 0
529.153 495.375 398.791 255 0 0
516.315 498.16 403.632 255 0 0
510.922 503.366 395.612 255 0 0
517.995 497.657 403.569 255 0 0
524.995 497.246 396.357 255 0 0
520.754 500.086 403.949 255 0 0
514.79 496.303 402.158 255 0 0
525.577 495.147 398.315 255 0 0
507.172 501.881 401.57 255 0 0
515.026 504.473 397.074 255 0 0
503.893 498.112 396.961 255 0 0
529.656 495.566 400.733 255 0 0
516.642 496.465 401.745 255 0 0
503.512 498.133 403.151 255 0 0
527.555 501.238 395.158 255 0 0
507.587 501.148 399.151 255 0 0
519.909 495.866 402.459 255 0 0
515.867 500.56 400.832 255 0 0
509.246 502.676 397.948 255 0 0
517.131 495.372 401.906 255 0 0
511.29 496.016 399.369 255 0 0
512.256 495.564 397.305 255 0 0
502.904 500.891 395.974 255 0 0
511.638 495.277 402.596 255 0 0
511.61 498.977 404.051 255 0 0
524.47 496.836 396.058 255 0 0
506.018 503.806 404.165 255 0 0
505.729 499.575 398.35 255 0 0
523.522 499.081 401.915 255 0 0
525.058 503.871 403.881 255 0 0
502.679 501.508 400.742 255 0 0
527.792 503.784 400.764 255 0 0
517.002 498.054 400.829 255 0 0
507.191 502.109 395.793 255 0 0
507.159 502.044 403.31 255 0 0
522.812 501.776 401.576 255 0 0
503.007 503.124 401.769 255 0 0
518.865 496.77 395.343 255 0 0
514.294 495.434 400.874 255 0 0
516.333 502.255 403.947 255 0 0
520.536 503.475 402.035 255 0 0
504.955 495.56 404.035 255 0 0
506.124 500.348 399.083 255 0 0
527.99 495.7 399.481 255 0 0
505.715 503.409 402.96 255 0 0
516.186 500.535 397.657 255 0 0
525.442 498.48 401.028 255 0 0
513.395 500.403 402.434 255 0 0
507.079 497.863 403.814 255 0 0
508.789 497.878 395.32 255 0 0
521.163 502.566 400.297 255 0 0
518.411 502.338 399.595 255 0 0
529.132 501.325 404.122 255 0 0
502.978 500.548 400.737 255 0 0
502.568 500.327 398.638 255 0 0
500.149 499.452 399.3 255 0 0
529.089 503.641 401.483 255 0 0
528.577 501.257 400.269 255 0 0
522.792 500.824 395.544 255 0 0
506.601 500.45 397.069 255 0 0
520.257 504.055 395.641 255 0 0
526.313 495.657 404.854 255 0 0
509.632 501.04 395.809 255 0 0
521.177 503.831 401.976 255 0 0
518.56 499.364 404.689 255 0 0
518.823 497.134 403.544 255 0 0
518.171 504.627 399.543 255 0 0
526.232 495.18 396.434 255 0 0
505.869 500.846 400.244 255 0 0
502.058 498.741 398.372 255 0 0
516.209 499.658 404.029 255 0 0
519.19 497.838 403.027 255 0 0
502.86 496.008 398.32 255 0 0
513.65 499.717 404.634 255 0 0
529.04 501.173 398.695 255 0 0
507 504.633 401.747 255 0 0
505.447 503.113 404.483 255 0 0
510.459 500.175 399.347 255 0 0
515.393 500.666 403.305 255 0 0
520.06 501.158 397.81 255 0 0
527.354 503.254 395.096 255 0 0
511.334 495.581 395.026 255 0 0
523.163 502.959 395.709 255 0 0
521.386 502.54 399.614 255 0 0
525.303 502.486 398.667 255 0 0
523.375 504.867 402.246 255 0 0
508.624 503.91 396.297 255 0 0
504.383 501.518 398.52 255 0 0
513.053 504.402 395.807 255 0 0
513.426 497.724 397.76 255 0 0
524.069 501.812 404.705 255 0 0
517.777 502.592 398.049 255 0 0
510.144 504.666 404.581 255 0 0
501.894 500.436 396.163 255 0 0
525.006 502.46 402.739 255 0 0
529.827 499.121 401.46 255 0 0
529.551 497.69 396.15 255 0 0
503.45 498.072 401.249 255 0 0
516.605 500.779 398.196 255 0 0
528.429 500.49 404.726 255 0 0
510.968 498.157 397.622 255 0 0
519.831 503.132 397.279 255 0 0
501.856 501.253 397.747 255 0 0
525.129 501.225 398.5 255 0 0
507.247 495.298 397.184 255 0 0
511.757 503.867 402.74 255 0 0
529.365 503.755 401.3 255 0 0
527.286 495.863 397.255 255 0 0
507.669 495.748 398.667 255 0 0
509.991 504.731 395.382 255 0 0
506.792 495.302 404.602 255 0 0
500.854 495.157 400.792 255 0 0
524.398 501.246 399.719 255 0 0
522.463 504.211 401.496 255 0 0
507.879 501.213 402.748 255 0 0
510.658 497.023 403.421 255 0 0
522.69 498.584 400.527 255 0 0
506.6 498.593 395.41 255 0 0
526.677 498.558 399.171 255 0 0
525.081 497.833 397.092 255 0 0
526.208 502.538 396.593 255 0 0
523.049 496.857 401.049 255 0 0
501.751 500.147 395.391 255 0 0
511.744 504.763 401.977 255 0 0
518.89 502.542 399.443 255 0 0
526.852 503.585 401.585 255 0 0
517.172 504.869 397.014 255 0 0
525.211 504.217 404.11 255 0 0
528.747 495.939 400.461 255 0 0
524.419 502.391 396.417 255 0 0
519.764 498.399 399.093 255 0 0
508.652 504.056 397.504 255 0 0
500.601 504.992 398.726 255 0 0
525.461 495.416 395.214 255 0 0
526.852 501.118 401.306 255 0 0
522.799 499.635 398.571 255 0 0
506.734 500.907 398.638 255 0 0
516.549 503.054 399.058 255 0 0
517.121 500.118 401.355 255 0 0
503.573 499.547 402.909 255 0 0
520.302 499.422 397.929 255 0 0
509.485 504.263 403.634 255 0 0
521.264 501.786 404.522 255 0 0
513.627 499.324 401.834 255 0 0
510.477 502.044 395.82 255 0 0
515.325 502.066 395.357 255 0 0
526.228 500.001 404.938 255 0 0
524.836 500.004 398.635 255 0 0
521.39 495.11 402.852 255 0 0
521.513 502.037 403.447 255 0 0
512.739 504.445 396.814 255 0 0
508.827 504.705 403.838 255 0 0
518.359 501.723 395.106 255 0 0
515.065 495.451 400.6 255 0 0
521.673 504.882 398.469 255 0 0
527.934 504.393 402.298 255 0 0
513.033 501.994 399.089 255 0 0
510.272 498.951 401.313 255 0 0
522.174 503.989 399.218 255 0 0
509.87 495.046 401.062 255 0 0
518.34 503.113 395.604 255 0 0
516.509 497.483 401.227 255 0 0
516.665 499.53 401.765 255 0 0
522.838 495.549 403.506 255 0 0
529.08 497.69 396.997 255 0 0
500.084 497.027 400.892 255 0 0
513.868 496.252 401.346 255 0 0
529.451 496.897 401.254 255 0 0
511.723 495.88 399.181 255 0 0
507.032 500.044 404.312 255 0 0
516.375 499.138 395.302 255 0 0
526.264 499.446 399.149 255 0 0
509.475 503.161 404.224 255 0 0
513.409 504.711 402.973 255 0 0
520.845 502.089 402.08 255 0 0
518.037 504.05 404.544 255 0 0
502.088 497.783 404.539 255 0 0
503.042 496.4 403.517 255 0 0
523.675 504.575 399.774 255 0 0
510.576 499.701 395.291 255 0 0
519.979 501.62 399.231 255 0 0
519.052 501.188 402.118 255 0 0
516.738 496.673 403.106 255 0 0
524.57 498.012 398.819 255 0 0
522.457 504.654 395.991 255 0 0
512.214 503.299 403.683 255 0 0
520.008 495.787 396.991 255 0 0
521.822 502.056 404.743 255 0 0
514.789 497.138 402.155 255 0 0
517.47 502.25 397.066 255 0 0
506.06 501.243 396.872 255 0 0
524.471 500.764 396.617 255 0 0
503.544 502.936 402.38 255 0 0
506.851 502.802 397.706 255 0 0
527.682 495.538 400.934 255 0 0
502.071 502.411 402.767 255 0 0
514.987 502.632 395.811 255 0 0
507.218 504.685 403.304 255 0 0
528.621 497.606 399.861 255 0 0
528.71 502.106 402.839 255 0 0
512.36 498.793 400.513 255 0 0
527.998 503.537 396.553 255 0 0
518.82 498.817 396.676 255 0 0
521.546 496.996 403.244 255 0 0
510.67 502.676 395.518 255 0 0
518.887 500.877 397.389 255 0 0
504.383 503.61 400.702 255 0 0
528.86 504.885 396.692 255 0 0
524.969 498.1 404.117 255 0 0
511.865 499.052 402.628 255 0 0
505.463 503.193 397.332 255 0 0
528.287 495.16 404.282 255 0 0
511.22 496.069 403.605 255 0 0
508.428 503.917 399.746 255 0 0
522.005 495.792 395.355 255 0 0
515.09 497.135 401.091 255 0 0
520.834 499.079 403.882 255 0 0
522.71 495.285 401.29 255 0 0
510.819 501.646 401.913 255 0 0
527.701 495.212 398.579 255 0 0
509.992 502.062 403.81 255 0 0
524.689 501.172 404.286 255 0 0
510.154 503.706 397.294 255 0 0
528.117 501.273 395.018 255 0 0
502.936 495.833 403.152 255 0 0
514.306 503.53 395.405 255 0 0
504.66 504.995 396.243 255 0 0
516.416 497.012 404.374 255 0 0
518.043 500.928 404.298 255 0 0
524.708 501.763 397.082 255 0 0
504.091 502.222 398.325 255 0 0
515.273 503.791 398.993 255 0 0
507.889 504.537 399.155 255 0 0
510.665 495.129 402.253 255 0 0
521.274 501.807 404.257 255 0 0
504.882 500.846 403.968 255 0 0
527.869 498.929 403.948 255 0 0
527.812 498.996 396.369 255 0 0
529.657 499.156 402.281 255 0 0
514.578 495.54 403.712 255 0 0
518.922 503.965 396.475 255 0 0
506.583 500.508 399.517 255 0 0
519.013 499.495 404.553 255 0 0
520.497 496.252 404.158 255 0 0
516.842 500.709 395.65 255 0 0
529.593 503.754 396.07 255 0 0
516.883 500.117 401.282 255 0 0
528.123 498.959 398.877 255 0 0
517.497 503.171 395.373 255 0 0
520.773 503.372 403.133 255 0 0
502.691 500.516 400.615 255 0 0
523.421 496.078 397.575 255 0 0
523.91 503.92 397.707 255 0 0
504.082 502.61 395.635 255 0 0
515.393 499.364 396.648 255 0 0
510.025 497.052 399.235 255 0 0
529.339 500.679 395.93 255 0 0
518.285 499.991 397.409 255 0 0
514.598 498.688 401.447 255 0 0
501.061 504.249 400.364 255 0 0
523.62 495.398 402.874 255 0 0
528.242 495.45 403.985 255 0 0
511.867 495.721 402.289 255 0 0
516.222 497.479 399.156 255 0 0
521.92 498.416 400.284 255 0 0
509.564 503.514 400.606 255 0 0
519.371 501.134 400.336 255 0 0
512.355 498.233 395.175 255 0 0
501.939 497.921 404.342 255 0 0
510.31 504.9 397.333 255 0 0
506.059 498.074 400.01 255 0 0
525.192 499.47 395.004 255 0 0
512.168 503.727 397.66 255 0 0
504.884 502.084 399.612 255 0 0
519.528 495.035 396.671 255 0 0
517.526 495.011 402.448 255 0 0
500.996 501.337 400.543 255 0 0
506.906 498.835 404.378 255 0 0
521.822 497.982 403.423 255 0 0
504.839 500.266 399.718 255 0 0
510.307 496.512 401.884 255 0 0
501.312 496.84 398.716 255 0 0
516.222 499.387 400.062 255 0 0
500.991 500.591 404.005 255 0 0
518.132 500.928 398.87 255 0 0
527.411 503.846 400.064 255 0 0
522.476 500.295 401.477 255 0 0
521.235 496.653 395.659 255 0 0
506.508 502.641 397.768 255 0 0
529.642 499.581 404.166 255 0 0
523.175 496.874 395.967 255 0 0
529.334 495.748 397.421 255 0 0
500.108 495.542 398.899 255 0 0
518.846 499.728 403.096 255 0 0
521.359 496.644 399.96 255 0 0
507.478 500.209 402.118 255 0 0
517.428 496.26 401.563 255 0 0
514.916 500.769 395.627 255 0 0
501.697 498.024 403.469 255 0 0
521.06 496.787 402.562 255 0 0
524.983 497.75 400.344 255 0 0
515.932 504.36 395.428 255 0 0
508.419 504.33 395.446 255 0 0
506.369 504.928 403.121 255 0 0
517.551 495.973 402.163 255 0 0
504.524 498.355 404.74 255 0 0
517.801 503.958 400.418 255 0 0
506.708 504.121 395.042 255 0 0
509.538 497.459 395.085 255 0 0
505.5 504.07 398.36 255 0 0
504.799 501.868 398.138 255 0 0
503.986 495.13 399.149 255 0 0
508.083 504.329 397.168 255 0 0
506.887 502.967 400.776 255 0 0
518.786 496.118 404.684 255 0 0
500.417 496.291 399.885 255 0 0
512.052 495.571 404.771 255 0 0
503.945 498.268 402.642 255 0 0
513.297 496.387 404.108 255 0 0
507.692 495.38 400.246 255 0 0
501.606 502.447 402.51 255 0 0
521.702 496.926 402.622 255 0 0
507.847 495.159 400.797 255 0 0
501.923 504.17 398.209 255 0 0
506.62 503.634 403.348 255 0 0
512.249 499.137 399.534 255 0 0
502.389 496.105 395.557 255 0 0
506.838 496.38 401.919 255 0 0
506.442 504.064 398.905 255 0 0
520.55 495.611 398.546 255 0 0
513.64 502.09 400.318 255 0 0
529.502 502.116 395.189 255 0 0
514.991 500.899 400.147 255 0 0
522.167 495.743 395.981 255 0 0
527.146 500.475 398.048 255 0 0
515.224 496.021 402.903 255 0 0
509.418 502.476 397.911 255 0 0
507.102 502.753 396.957 255 0 0
509.697 495.367 403.616 255 0 0
513.099 500.892 396.449 255 0 0
500.269 499.03 399.973 255 0 0
525.764 500.533 402.767 255 0 0
513.633 500.024 402.324 255 0 0
521.945 503.57 399.056 255 0 0
526.612 501.493 397.331 255 0 0
514.429 499.196 397.916 255 0 0
522.956 501.751 396.173 255 0 0
518.59 497.776 401.334 255 0 0
520.038 496.497 395.583 255 0 0
502.84 498.503 400.505 255 0 0
523.024 502.125 399.884 255 0 0
511.465 503.263 401.231 255 0 0
517.146 499.398 400.514 255 0 0
519.32 500.267 402.821 255 0 0
511.281 500.795 401.34 255 0 0
508.73 504.898 398.185 255 0 0
515.55 504.079 396.666 255 0 0
519.733 502.404 396.881 255 0 0
511.401 497.637 402.653 255 0 0
508.763 502.344 398.84 255 0 0
519.491 499.22 399.017 255 0 0
521.699 499.696 401.81 255 0 0
509.245 497.354 402.284 255 0 0
512.335 495.232 403.547 255 0 0
507.294 500.7 401.172 255 0 0
502.504 500.837 403.491 255 0 0
513.836 497.028 400.336 255 0 0
506.478 498.132 401.509 255 0 0
512.486 500.719 402.176 255 0 0
529.719 495.521 402.784 255 0 0
511.452 503.973 404.341 255 0 0
503.022 502.448 396.3 255 0 0
513.466 500.87 403.527 255 0 0
522.488 497.283 401.651 255 0 0
522.65 501.775 396.906 255 0 0
523.86 500.584 398.825 255 0 0
503.5 495.256 398.465 255 0 0
504.644 496.603 404.477 255 0 0
519.379 502.247 402.178 255 0 0
528.321 501.775 403.892 255 0 0
504.524 503.628 403.337 255 0 0
513.704 498.97 399.226 255 0 0
503.525 500.046 402.081 255 0 0
519.681 498.189 395.059 255 0 0
517.32 502.246 400.543 255 0 0
501.306 501.447 401.369 255 0 0
524.029 498.97 401.979 255 0 0
520.734 501.575 401.235 255 0 0
508.616 503.405 404.066 255 0 0
500.514 500.847 403.859 255 0 0
506.858 499.035 403.259 255 0 0
519.949 502.004 397.841 255 0 0
527.152 497.932 399.681 255 0 0
507.055 503.869 397.298 255 0 0
517.208 495.925 396.169 255 0 0
503.606 504.337 401.191 255 0 0
512.799 496.671 403.414 255 0 0
502.546 499.425 395.985 255 0 0
528.754 496.046 404.571 255 0 0
502.096 497.156 398.709 255 0 0
525.845 502.086 401.426 255 0 0
510.741 499.715 400.616 255 0 0
511.422 499.254 401.525 255 0 0
512.071 499.442 399.793 255 0 0
507.968 504.614 403.663 255 0 0
527.756 500.431 401.758 255 0 0
517.683 500.256 397.879 255 0 0
528.212 500.136 402.649 255 0 0
523.703 496.225 401.126 255 0 0
523.652 496.026 404.394 255 0 0
518.782 497.033 403.847 255 0 0
517.523 500.511 395.717 255 0 0
518.32 504.361 399.704 255 0 0
505.553 498.414 402.495 255 0 0
509.548 501.027 395.585 255 0 0
519.179 503.146 397.367 255 0 0
528.495 497.489 397.69 255 0 0
505.508 500.717 397.759 255 0 0
503.878 496.816 401.669 255 0 0
510.134 502.275 398.059 255 0 0
522.296 502.684 400.034 255 0 0
516.767 499.436 402.857 255 0 0
500.123 496.38 395.461 255 0 0
519.834 501.906 402.694 255 0 0
511.52 498.957 401.141 255 0 0
522.788 499.158 398.959 255 0 0
527.239 495.055 397.439 255 0 0
527.961 498.265 403.73 255 0 0
503.25 502.295 401.192 255 0 0
509.824 500.718 395.083 255 0 0
508.518 500.158 395.484 255 0 0
502.671 496.77 397.62 255 0 0
511.226 498.793 402.235 255 0 0
505.09 498.254 399.225 255 0 0
529.18 495.561 399.17 255 0 0
505.951 499.487 404.447 255 0 0
516.45 499.68 401.719 255 0 0
502.41 498.153 402.842 255 0 0
522.741 501.766 396.765 255 0 0
522.601 502.484 399.626 255 0 0
515.202 503.362 400.022 255 0 0
526.663 498.098 401.324 255 0 0
516.837 500.464 397.843 255 0 0
514.733 496.312 395.285 255 0 0
513.286 504.381 397.864 255 0 0
518.735 503.487 395.186 255 0 0
501.168 497.721 398.771 255 0 0
527.678 504.975 401.134 255 0 0
508.605 496.497 400.725 255 0 0
526.545 503.69 403.655 255 0 0
519.568 499.007 399.768 255 0 0
521.828 504.569 399.665 255 0 0
519.582 495.535 396.962 255 0 0
513.891 498.276 397.723 255 0 0
503.925 501.09 395.766 255 0 0
503.788 496.754 396.498 255 0 0
506.553 496.567 398.06 255 0 0
528.246 497.429 398.445 255 0 0
509.898 496.244 400.752 255 0 0
519.062 504.838 397.798 255 0 0
505.229 501.588 395.845 255 0 0
524.035 498.185 399.317 255 0 0
521.654 498.164 399.706 255 0 0
506.759 496.724 399.863 255 0 0
512.987 495.09 404.807 255 0 0
514.903 504.521 403.636 255 0 0
526.968 501.923 399.58 255 0 0
501.66 504.455 400.223 255 0 0
512.866 501.685 399.293 255 0 0
511.477 495.413 398.987 255 0 0
512.752 504.295 396.201 255 0 0
528.347 499.954 395.547 255 0 0
506.266 495.532 404.162 255 0 0
507.545 504.812 401.261 255 0 0
512.02 501.815 398.374 255 0 0
525.165 499.431 399.722 255 0 0
507.785 495.427 404.657 255 0 0
515.893 498.322 404.78 255 0 0
506.666 496.648 403.8 255 0 0
516.841 500.129 404.02 255 0 0
508.633 502.562 401.846 255 0 0
524.228 496.063 404.118 255 0 0
524.295 502.728 399.236 255 0 0
521.785 503.678 399.928 255 0 0
516.099 500.604 397.95 255 0 0
506.899 496.382 398.826 255 0 0
505.269 504.495 399.524 255 0 0
527.489 501.887 396.55 255 0 0
521.273 503.096 396.11 255 0 0
504.115 499.048 403.861 255 0 0
518.099 500.783 398.165 255 0 0
508.928 498.439 395.859 255 0 0
500.529 501.186 397.517 255 0 0
521.099 499.386 396.349 255 0 0
511.097 498.472 402.475 255 0 0
505.751 503.679 396.655 255 0 0
518.361 495.484 398.143 255 0 0
518.346 497.061 402.019 255 0 0
519.616 495.229 397.837 255 0 0
527.858 495.881 404.586 255 0 0
525.809 504.107 401.51 255 0 0
517.737 500.578 404.241 255 0 0
512.414 496.203 403.339 255 0 0
520.707 499.986 399.005 255 0 0
503.604 503.995 401.296 255 0 0
522.459 497.954 400.833 255 0 0
518.744 504.58 399.511 255 0 0
518.062 497.356 404.647 255 0 0
522.066 497.145 398.173 255 0 0
524.097 499.505 403.565 255 0 0
522.939 504.958 402.029 255 0 0
522.751 497.162 401.736 255 0 0
517.836 499.252 403.947 255 0 0
517.119 498.019 398.602 255 0 0
513.238 503.867 395.007 255 0 0
523.882 497.74 395.169 255 0 0
513.118 502.985 404.177 255 0 0
510.119 496.625 396.3 255 0 0
500.207 497.108 403.338 255 0 0
501.143 502.276 403.363 255 0 0
522.831 496.708 402.996 255 0 0
518.298 503.946 404.839 255 0 0
525.706 498.692 400.824 255 0 0
514.889 501.581 401.394 255 0 0
504.265 502.213 395.843 255 0 0
504.96 500.437 397.85 255 0 0
526.112 497.178 399.007 255 0 0
515.347 504.256 395.31 255 0 0
503.004 497.262 401.837 255 0 0
512.476 497.857 396.36 255 0 0
508.659 502.118 398.344 255 0 0
528.216 497.438 395.954 255 0 0
520.345 499.974 404.312 255 0 0
500.355 504.378 396.11 255 0 0
521.364 498.954 397.05 255 0 0
513.942 497.355 395.559 255 0 0
507.058 499.332 395.776 255 0 0
509.468 498.876 399.975 255 0 0
502.625 495.265 403.724 255 0 0
503.057 498.415 402.719 255 0 0
516.95 495.337 402.405 255 0 0
509.053 502.459 400.258 255 0 0
501.509 501.863 399.313 255 0 0
503.526 495.848 404.412 255 0 0
522.808 496.792 397.481 255 0 0
527.113 498.507 403.55 255 0 0
511.31 504.677 399.384 255 0 0
519.312 502.657 402.858 255 0 0
513.357 501.886 399.715 255 0 0
509.298 497.184 398.318 255 0 0
526.414 498.342 397.174 255 0 0
528.494 498.031 397.808 255 0 0
516.181 504.136 398.938 255 0 0
502.738 500.556 400.874 255 0 0
516.173 502.943 395.293 255 0 0
503.756 503.965 395.337 255 0 0
524.625 500.843 401.761 255 0 0
507.638 504.209 399.95 255 0 0
511.721 504.006 396.229 255 0 0
508.678 500.819 401.336 255 0 0
504.374 495.906 397.581 255 0 0
512.856 496.381 399.061 255 0 0
506.046 500.295 403.821 255 0 0
505.961 496.811 404.39 255 0 0
516.973 499.736 400.825 255 0 0
518.171 504.7 399.578 255 0 0
519.995 497.343 398.074 255 0 0
511.234 503.097 397.917 255 0 0
527.036 499.058 396.553 255 0 0
507.11 501.561 401.47 255 0 0
504.282 496.528 402.578 255 0 0
508.202 504.906 400.448 255 0 0
504.851 496.453 403.933 255 0 0
508.351 495.537 395.391 255 0 0
511.749 504.719 403.526 255 0 0
516.299 498.264 404.57 255 0 0
527.367 500.125 398.347 255 0 0
521.771 498.989 398.819 255 0 0
529.571 495.37 401.794 255 0 0
513.537 499.9 402.489 255 0 0
526.1 499.359 399.111 255 0 0
506.313 503.279 396.748 255 0 0
502.155 495.623 403.149 255 0 0
503.313 495.266 397.838 255 0 0
503.44 501.765 396.762 255 0 0
524.328 502.235 397.7 255 0 0
528.289 502.9 395.954 255 0 0
528.021 501.945 402.655 255 0 0
508.583 498.528 404.401 255 0 0
515.558 497.771 397.029 255 0 0
509.765 498.987 402.22 255 0 0
510.808 498.23 395.025 255 0 0
503.308 503.899 401.282 255 0 0
504.056 498.663 400.86 255 0 0
506.571 497.153 398.757 255 0 0
508.713 501.832 399.633 255 0 0
527.743 502.492 396.797 255 0 0
520.21 502.996 397.384 255 0 0
501.494 496.454 403.037 255 0 0
502.945 502.308 399.284 255 0 0
518.315 496.338 404.215 255 0 0
518.354 499.111 397.131 255 0 0
518.569 498.63 395.071 255 0 0
507.716 503.053 402.522 255 0 0
502.803 504.413 398.069 255 0 0
523.397 502.724 404.508 255 0 0
512.111 504.406 396.221 255 0 0
523.148 496.562 399.01 255 0 0
521.563 495.115 397.918 255 0 0
516.565 501.841 401.479 255 0 0
515.309 501.619 402.75 255 0 0
522.365 499.596 399.188 255 0 0
519.354 500.339 399.079 255 0 0
510.84 499.172 403.052 255 0 0
527.781 496.668 398.203 255 0 0
526.219 504.677 397.942 255 0 0
526.619 498.204 404.534 255 0 0
523.686 499.194 396.456 255 0 0
501.426 495.559 402.93 255 0 0
520.828 498.474 398.819 255 0 0
527.62 500.148 396.009 255 0 0
508.644 498.896 397.367 255 0 0
523.619 500.725 402.306 255 0 0
529.75 495.118 397.192 255 0 0
524.986 496.9 395.425 255 0 0
521.664 498.355 399.782 255 0 0
514.929 499.933 403.577 255 0 0
512.04 497.123 404.146 255 0 0
514.615 502.579 401.316 255 0 0
521.515 498.176 397.532 255 0 0
513.88 503.971 404.371 255 0 0
506.027 500.002 404.388 255 0 0
507.367 497.014 397.837 255 0 0
512.106 497.974 397.925 255 0 0
501.253 496.056 396.137 255 0 0
529.816 498.449 404.283 255 0 0
515.11 504.57 397.096 255 0 0
502.182 499.288 399.441 255 0 0
507.011 496.276 396.356 255 0 0
512.514 498.879 402.838 255 0 0
508.303 497.724 398.751 255 0 0
522.104 501.249 401.614 255 0 0
502.244 497.261 396.556 255 0 0
526.085 497.28 396.774 255 0 0
528.823 503.971 396.857 255 0 0
514.333 503.632 404.145 255 0 0
529.746 497.08 395.544 255 0 0
503.141 502.102 400.903 255 0 0
514.183 498.708 401.682 255 0 0
521.834 498.079 397.328 255 0 0
518.243 504.329 402.02 255 0 0
515.995 497.611 402.598 255 0 0
510.732 500.462 400.948 255 0 0
527.028 500.269 401.514 255 0 0
515.47 499.001 399.588 255 0 0
503.144 499.726 400.178 255 0 0
514.551 504.339 398.574 255 0 0
526.16 500.298 401.878 255 0 0
506.444 503.156 395.476 255 0 0
517.355 498.918 398.759 255 0 0
528.59 503.769 401.293 255 0 0
515.315 499.305 404.772 255 0 0
522.605 503.609 401.936 255 0 0
514.357 501.771 396.144 255 0 0
513.298 497.919 402.025 255 0 0
513.612 503.474 401.406 255 0 0
510.752 499.716 399.182 255 0 0
516.841 497.366 398.832 255 0 0
521.956 499.49 403.732 255 0 0
507.584 503.003 402.075 255 0 0
515.855 501.841 396.115 255 0 0
516.124 504.376 398.352 255 0 0
519.937 497.226 396.303 255 0 0
529.898 504.356 404.682 255 0 0
522.603 495.366 395.348 255 0 0
523.44 504.064 397.683 255 0 0
528.267 500.87 395.967 255 0 0
528.265 502.757 397.185 255 0 0
508.292 504.81 402.207 255 0 0
527.725 501.106 404.802 255 0 0
501.179 499.529 399.246 255 0 0
522.352 501.169 400.029 255 0 0
514.563 502.395 400.625 255 0 0
511.342 502.999 397.37 255 0 0
504.875 495.426 404.035 255 0 0
529.679 499.436 404.661 255 0 0
512.803 501.114 403.495 255 0 0
509.672 502.283 403.77 255 0 0
523.647 504.557 403.498 255 0 0
502.254 496.808 403.396 255 0 0
502.672 501.191 403.182 255 0 0
525.67 496.677 397.871 255 0 0
526.2 501.589 398.107 255 0 0
503.793 497.601 403.98 255 0 0
520.896 498.492 401.379 255 0 0
505.434 500.663 399.551 255 0 0
508.578 503.685 402.541 255 0 0
528.975 498.698 396.765 255 0 0
526.845 500.674 401.868 255 0 0
522.565 503.666 399.186 255 0 0
507.494 500.716 401.513 255 0 0
