ply
format ascii 1.0
comment Created by Open3D
element vertex 1419
property double x
property double y
property double z
property uchar red
property uchar green
property uchar blue
end_header
-496.372 -378.393 295.113 0 255 0
-499.111 -385.986 301.144 0 255 0
-495.575 -378.895 298.09 0 255 0
-504.565 -384.739 303.44 0 255 0
-500.678 -389.634 299.913 0 255 0
-495.804 -378.058 304.624 0 255 0
-502.953 -398.662 297.686 0 255 0
-501.802 -391.422 301.097 0 255 0
-503.704 -383.514 301.407 0 255 0
-501.199 -386.405 301.482 0 255 0
-497.544 -390.151 304.761 0 255 0
-499.881 -391.845 295.754 0 255 0
-499.483 -382.599 298.084 0 255 0
-498.28 -371.064 297.619 0 255 0
-500.455 -371.414 301.994 0 255 0
-495.923 -373.187 295.628 0 255 0
-504.933 -393.86 303.359 0 255 0
-497.822 -381.032 304.105 0 255 0
-499.656 -380.587 301.995 0 255 0
-504.739 -397.158 301.238 0 255 0
-497.62 -395.827 301.315 0 255 0
-503.145 -375.245 300.3 0 255 0
-503.249 -372.791 300.169 0 255 0
-502.14 -374.316 295.357 0 255 0
-500.496 -396.202 304.302 0 255 0
-503.541 -387.642 296.559 0 255 0
-500.134 -380.355 296.179 0 255 0
-501.271 -370.216 297.589 0 255 0
-499.977 -378.131 299.761 0 255 0
-495.995 -372.574 296.67 0 255 0
-503.354 -395.762 302.984 0 255 0
-501.099 -372.786 299.344 0 255 0
-501.724 -370.561 299.945 0 255 0
-504.45 -395.682 299.019 0 255 0
-503.745 -376.488 304.622 0 255 0
-498.033 -383.504 298.425 0 255 0
-501.387 -397.044 298.905 0 255 0
-501.53 -390.544 295.79 0 255 0
-503.695 -376.942 303.601 0 255 0
-501.878 -399.966 304.637 0 255 0
-503.788 -384.182 303.637 0 255 0
-498.5 -384.061 301.186 0 255 0
-502.123 -379.425 299.252 0 255 0
-501.816 -395.172 295.529 0 255 0
-499.393 -383.448 303.42 0 255 0
-496.091 -390.801 295.135 0 255 0
-495.227 -380.871 300.71 0 255 0
-499.088 -393.977 296.068 0 255 0
-504.571 -397.686 295.219 0 255 0
-499.732 -399.427 300.134 0 255 0
-495.85 -372.671 302.112 0 255 0
-501.2 -396.371 298.153 0 255 0
-500.87 -396.941 300.49 0 255 0
-500.332 -383.524 296.461 0 255 0
-498.073 -388.9 297.117 0 255 0
-501.017 -386.103 299.663 0 255 0
-503.08 -377.465 295.021 0 255 0
-504.22 -377.814 301.18 0 255 0
-499.38 -396.285 297.423 0 255 0
-495.452 -370.26 301.841 0 255 0
-500.083 -388.009 301.848 0 255 0
-498.524 -391.891 295.292 0 255 0
-502.057 -375.757 298.863 0 255 0
-496.553 -391.489 295.884 0 255 0
-495.947 -389.373 302.066 0 255 0
-504.712 -382.529 297.226 0 255 0
-500.475 -383.345 298.405 0 255 0
-500.643 -376.32 298.447 0 255 0
-501.15 -397.155 299.247 0 255 0
-496.571 -392.635 298.342 0 255 0
-503.518 -390.596 295.716 0 255 0
-503.601 -381.702 301.544 0 255 0
-498.43 -379.289 296.513 0 255 0
-497.371 -386.749 296.849 0 255 0
-496.717 -388.604 296.441 0 255 0
-500.308 -378.976 302.145 0 255 0
-495.747 -371.248 299.26 0 255 0
-497.098 -391.261 297.148 0 255 0
-502.978 -376.862 296.917 0 255 0
-495.168 -386.238 295.913 0 255 0
-498.679 -381.606 295.487 0 255 0
-500.811 -395.906 295.111 0 255 0
-502.764 -387.605 299.864 0 255 0
-501.333 -389.689 295.12 0 255 0
-502.258 -388.499 300.45 0 255 0
-495.834 -393.989 298.421 0 255 0
-504.085 -371.927 302.782 0 255 0
-500.595 -396.979 299.469 0 255 0
-499.911 -397.817 303.662 0 255 0
-497.361 -395.081 302.454 0 255 0
-499.24 -394.881 300.245 0 255 0
-503.763 -392.04 296.583 0 255 0
-500.182 -390.189 302.286 0 255 0
-496.624 -370.595 295.764 0 255 0
-499.299 -395.449 304.04 0 255 0
-495.774 -384.417 304.027 0 255 0
-503.632 -379.515 295.647 0 255 0
-501.688 -399.174 302.856 0 255 0
-495.968 -378.878 300.963 0 255 0
-498.717 -381.379 300.886 0 255 0
-502.059 -384.307 300.704 0 255 0
-504.088 -396.331 297.47 0 255 0
-501.22 -376.035 303.907 0 255 0
-500.39 -370.947 295.739 0 255 0
-500.285 -377.506 302.394 0 255 0
-499.718 -397.328 304.23 0 255 0
-498.802 -388.104 298.305 0 255 0
-498.48 -390.938 301.795 0 255 0
-496.209 -372.947 296.204 0 255 0
-502.692 -398.058 302.561 0 255 0
-497.215 -373.368 297.857 0 255 0
-495.601 -397.474 296.512 0 255 0
-501.389 -388.005 299.449 0 255 0
-496.891 -383.438 299.472 0 255 0
-496.637 -388.343 298.842 0 255 0
-502.618 -394.942 297.227 0 255 0
-504.886 -386.295 295.332 0 255 0
-501.113 -382.659 304.591 0 255 0
-501.083 -371.111 303.131 0 255 0
-498.83 -390.455 299.026 0 255 0
-504.582 -377.717 301.813 0 255 0
-501.946 -380.58 303.983 0 255 0
-501.204 -382.989 301.428 0 255 0
-502.358 -389.106 300.518 0 255 0
-497.446 -372.186 297.262 0 255 0
-496.995 -373.055 302.828 0 255 0
-497.114 -395.113 300.125 0 255 0
-499.002 -390.406 296.324 0 255 0
-498.56 -375.15 302.96 0 255 0
-499.213 -370.241 298.727 0 255 0
-499.673 -381.687 302.141 0 255 0
-503.789 -379.285 298.844 0 255 0
-499.02 -377.922 295.675 0 255 0
-496.313 -383.259 296.083 0 255 0
-502.915 -389.749 301.897 0 255 0
-501.926 -398.267 303.291 0 255 0
-503.186 -395.577 304.839 0 255 0
-501.176 -397.824 297.878 0 255 0
-504.06 -377.895 304.384 0 255 0
-496.2 -382.963 300.425 0 255 0
-495.916 -370.091 304.245 0 255 0
-502.047 -377.091 304.456 0 255 0
-500.895 -380.241 304.244 0 255 0
-502.691 -387.477 303.881 0 255 0
-501.17 -379.416 298.906 0 255 0
-497.568 -396.143 299.034 0 255 0
-502.413 -374.479 296.542 0 255 0
-498.437 -382.093 300.932 0 255 0
-504.97 -390.721 298.033 0 255 0
-495.98 -378.042 298.803 0 255 0
-496.265 -374.833 295.003 0 255 0
-503.512 -392.188 300.533 0 255 0
-496.396 -395.568 302.098 0 255 0
-499.26 -397.362 299.557 0 255 0
-496.816 -394.844 302.638 0 255 0
-504.846 -376.005 303.172 0 255 0
-499.869 -394.019 303.853 0 255 0
-502.754 -373.967 301.377 0 255 0
-497.358 -384.575 299.322 0 255 0
-503.383 -387.923 299.082 0 255 0
-501.886 -385.981 300.982 0 255 0
-496.118 -399.032 303.785 0 255 0
-499.12 -376.774 303.554 0 255 0
-496.747 -375.402 295.895 0 255 0
-499.059 -394.628 303.623 0 255 0
-504.552 -374.333 299.074 0 255 0
-502.095 -375.083 302.15 0 255 0
-496.692 -390.74 301.596 0 255 0
-502.363 -371.26 298.713 0 255 0
-496.931 -389.712 304.065 0 255 0
-504.518 -388.038 297.732 0 255 0
-496.388 -389.863 296.963 0 255 0
-502.178 -378.007 304.167 0 255 0
-495.139 -397.503 302.469 0 255 0
-503.586 -387.903 298.62 0 255 0
-497.884 -393.368 298.621 0 255 0
-503.301 -386.504 304.874 0 255 0
-499.798 -373.664 298.267 0 255 0
-501.665 -392.253 296.821 0 255 0
-503.274 -382.444 295.389 0 255 0
-501.52 -379.902 297.919 0 255 0
-502.564 -388.241 295.435 0 255 0
-497.25 -392.46 296.89 0 255 0
-500.961 -374.008 304.757 0 255 0
-497.444 -373.937 303.46 0 255 0
-498.564 -385.826 301.411 0 255 0
-503.711 -374.882 298.153 0 255 0
-501.075 -385.015 300.449 0 255 0
-500.636 -386.805 301.031 0 255 0
-499.215 -372.153 297.568 0 255 0
-500.476 -374.42 304.154 0 255 0
-495.393 -393.205 300.737 0 255 0
-504.466 -398.408 304.762 0 255 0
-502.024 -396.548 299.088 0 255 0
-500.184 -394.72 303.904 0 255 0
-502.638 -378.477 300.523 0 255 0
-503.167 -393.347 296.467 0 255 0
-502.674 -387.091 300.505 0 255 0
-502.2 -389.237 298.606 0 255 0
-498.897 -394.824 301.032 0 255 0
-502.344 -370.064 297.905 0 255 0
-499.439 -370.79 296.575 0 255 0
-498.112 -382.186 295.257 0 255 0
-495.025 -381.644 296.416 0 255 0
-499.748 -384.894 299.579 0 255 0
-497.998 -376.064 304.013 0 255 0
-497.983 -381.57 302.527 0 255 0
-499.863 -394.962 297.485 0 255 0
-497.745 -393.311 300.063 0 255 0
-500.781 -399.619 304.14 0 255 0
-499.502 -397.645 303.79 0 255 0
-504.686 -394.356 304.403 0 255 0
-501.758 -384.008 301.658 0 255 0
-503.219 -398.14 303.033 0 255 0
-500.16 -399.506 295.598 0 255 0
-497.915 -376.28 304.888 0 255 0
-495.6 -380.706 296.449 0 255 0
-504.484 -390.578 300.371 0 255 0
-496.767 -394.775 304.527 0 255 0
-502.082 -388.107 295.739 0 255 0
-495.583 -381.155 303.962 0 255 0
-497.883 -382.695 295.443 0 255 0
-498.854 -372.836 301.994 0 255 0
-497.15 -388.356 302.59 0 255 0
-498.568 -386.958 302.117 0 255 0
-495.423 -371.909 301.845 0 255 0
-498.058 -389.005 300.713 0 255 0
-502.774 -372.092 296.201 0 255 0
-504.03 -379.776 300.064 0 255 0
-504.788 -395.633 299.321 0 255 0
-498.216 -375.533 297.375 0 255 0
-498.585 -386.334 296.21 0 255 0
-502.305 -392.049 299.975 0 255 0
-497.943 -399.271 296.075 0 255 0
-504.657 -396.031 304.888 0 255 0
-498.457 -397.724 297.235 0 255 0
-495.018 -379.047 297.29 0 255 0
-503.706 -377.701 300.16 0 255 0
-499.353 -392.471 297.374 0 255 0
-497.39 -399.253 298.922 0 255 0
-498.251 -389.995 304.65 0 255 0
-498.52 -392.265 297.183 0 255 0
-499.52 -381.347 299.559 0 255 0
-498.014 -380.341 301.056 0 255 0
-495.233 -373.237 295.638 0 255 0
-502.363 -378.4 302.786 0 255 0
-500.581 -399.98 295.389 0 255 0
-498.5 -372.973 302.295 0 255 0
-503.102 -390.215 296.052 0 255 0
-496.111 -394.542 296.232 0 255 0
-496.605 -397.479 295.167 0 255 0
-504.619 -373.027 300.753 0 255 0
-497.633 -392.357 302.487 0 255 0
-503.482 -391.434 301.501 0 255 0
-495.749 -383.771 298.876 0 255 0
-501.831 -384.233 301.826 0 255 0
-501.025 -377.676 299.956 0 255 0
-497.563 -392.939 299.918 0 255 0
-495.976 -384.122 304.211 0 255 0
-496.613 -372.163 303.107 0 255 0
-501.326 -397.013 304.147 0 255 0
-504.528 -399.203 296.665 0 255 0
-500.272 -374.251 295.025 0 255 0
-504.772 -370.565 301.522 0 255 0
-502.858 -385.835 300.668 0 255 0
-496.343 -378.438 301.464 0 255 0
-497.295 -397.253 299.919 0 255 0
-496.928 -394.556 297.683 0 255 0
-504.773 -396.202 295.318 0 255 0
-497.422 -375.244 297.768 0 255 0
-497.734 -391.464 303.928 0 255 0
-501.406 -389.507 304.93 0 255 0
-502.898 -389.928 301.662 0 255 0
-495.004 -395.645 304.477 0 255 0
-498.733 -372.823 299.622 0 255 0
-497.994 -377.63 297.09 0 255 0
-499.251 -398.652 298.371 0 255 0
-502.067 -377.088 298.685 0 255 0
-499.146 -375.308 302.404 0 255 0
-504.564 -385.875 302.526 0 255 0
-500.698 -383.745 296.732 0 255 0
-500.144 -385.458 303.734 0 255 0
-499.236 -377.583 298.27 0 255 0
-495.072 -390.697 298.107 0 255 0
-502.838 -385.033 300.593 0 255 0
-500.496 -399.626 295.383 0 255 0
-496.11 -374.654 304.076 0 255 0
-503.527 -381.528 295.035 0 255 0
-504.975 -399.655 302.553 0 255 0
-503.517 -399.695 295.046 0 255 0
-501.673 -390.868 299.231 0 255 0
-497.152 -398.744 297.977 0 255 0
-496.095 -376.443 299.569 0 255 0
-503.988 -395.296 304.129 0 255 0
-496.277 -383.064 300.413 0 255 0
-499.652 -388.024 295.697 0 255 0
-500.118 -393.725 302.334 0 255 0
-502.07 -381.862 299.843 0 255 0
-501.208 -380.383 295.961 0 255 0
-504.607 -389.792 297.654 0 255 0
-499.534 -388.527 296.575 0 255 0
-495.028 -382.062 299.156 0 255 0
-501.503 -381.011 295.367 0 255 0
-496.174 -385.788 299.728 0 255 0
-502.203 -372.698 300.3 0 255 0
-495.385 -387.625 296.829 0 255 0
-499.743 -397.863 299.163 0 255 0
-495.258 -383.639 300.072 0 255 0
-498.463 -390.079 298.283 0 255 0
-503.716 -374.678 296.359 0 255 0
-502.163 -386.758 302.411 0 255 0
-503.304 -395.632 297.338 0 255 0
-504.827 -392.534 302.357 0 255 0
-503.57 -376.51 298.103 0 255 0
-496.749 -378.317 297.779 0 255 0
-502.186 -379.413 295.802 0 255 0
-498.645 -372.277 304.536 0 255 0
-501.718 -379.562 295.367 0 255 0
-503.684 -377.198 297.614 0 255 0
-502.585 -377.78 300.726 0 255 0
-501.091 -383.875 296.368 0 255 0
-495.852 -398.628 296.382 0 255 0
-501.508 -387.108 302.857 0 255 0
-501.837 -399.87 299.171 0 255 0
-503.486 -372.074 296.883 0 255 0
-502.07 -372.97 302.781 0 255 0
-495.592 -384.052 304.928 0 255 0
-499.281 -395.915 295.813 0 255 0
-501.333 -397.828 296.15 0 255 0
-498.958 -399.538 303.003 0 255 0
-496.755 -371.126 303.85 0 255 0
-496.194 -383.526 296.405 0 255 0
-498.468 -389.981 298.552 0 255 0
-496.142 -392.079 300.635 0 255 0
-501.001 -371.292 295.839 0 255 0
-503.615 -392.896 299.542 0 255 0
-501.721 -397.862 303.801 0 255 0
-500.853 -393.67 298.963 0 255 0
-498.864 -395.193 296.434 0 255 0
-501.199 -381.042 297.514 0 255 0
-495.684 -372.561 296.306 0 255 0
-502.296 -386.885 295.68 0 255 0
-499.752 -398.876 297.433 0 255 0
-497.361 -390.39 301.003 0 255 0
-499.539 -386.477 297.177 0 255 0
-498.448 -394.97 295.906 0 255 0
-504.736 -372.46 303.463 0 255 0
-498.344 -377.637 297.234 0 255 0
-503.651 -388.544 296.396 0 255 0
-499.344 -377.394 303.945 0 255 0
-497.287 -376.437 301.849 0 255 0
-500.256 -391.67 296.667 0 255 0
-495.467 -380.276 303.989 0 255 0
-504.801 -391.694 300.989 0 255 0
-502.907 -396.504 300.05 0 255 0
-504.662 -387.523 300.431 0 255 0
-500.913 -370.603 300.165 0 255 0
-497.02 -398.707 300.743 0 255 0
-499.466 -370.849 295.546 0 255 0
-499.446 -386.309 300.819 0 255 0
-495.703 -375.209 295.104 0 255 0
-495.037 -373.103 304.86 0 255 0
-500.856 -396.866 301.657 0 255 0
-502.695 -394.407 297.445 0 255 0
-503.87 -379.702 302.568 0 255 0
-497.509 -382.703 299.391 0 255 0
-495.687 -382.206 295.094 0 255 0
-497.476 -389.911 304.147 0 255 0
-497.687 -391.123 302.874 0 255 0
-500.193 -372.907 301.164 0 255 0
-502.221 -374.732 300.868 0 255 0
-495.159 -391.639 299.926 0 255 0
-504.938 -391.888 298.643 0 255 0
-500.357 -385.169 300.786 0 255 0
-497.781 -388.284 297.19 0 255 0
-503.881 -383.106 299.817 0 255 0
-502.818 -379.568 296.646 0 255 0
-500.704 -392.559 298.32 0 255 0
-501.331 -392.627 298.172 0 255 0
-501.598 -383.846 295.267 0 255 0
-504.851 -375.826 296.006 0 255 0
-503.123 -396.031 297.712 0 255 0
-498.035 -370.53 302.225 0 255 0
-501.957 -387.503 304.896 0 255 0
-504.709 -380.281 300.053 0 255 0
-497.108 -391.996 301.074 0 255 0
-500.571 -387.177 295.433 0 255 0
-495.681 -387.743 297.737 0 255 0
-502.398 -398.799 296.378 0 255 0
-502.409 -381.66 303.742 0 255 0
-504.987 -380.857 296.845 0 255 0
-496.909 -370.277 301.841 0 255 0
-497.22 -387.75 301.033 0 255 0
-502.061 -381.012 298.538 0 255 0
-498.024 -387.999 304.432 0 255 0
-504.268 -370.317 304.349 0 255 0
-502.719 -397.043 301.83 0 255 0
-495.593 -380.788 304.015 0 255 0
-498.203 -371.577 299.639 0 255 0
-499.636 -384.268 301.595 0 255 0
-499.855 -371.873 301.373 0 255 0
-498.519 -388.031 303.771 0 255 0
-503.452 -380.779 300.253 0 255 0
-499.563 -389.093 300.833 0 255 0
-496.09 -386.551 295.744 0 255 0
-498.577 -383.783 300.986 0 255 0
-504.533 -370.989 304.983 0 255 0
-496.952 -391.558 303.773 0 255 0
-504.537 -373.968 296.432 0 255 0
-503.074 -386.759 295.667 0 255 0
-499.594 -377.88 299.334 0 255 0
-499.965 -375.843 299.385 0 255 0
-500.097 -378.62 304.739 0 255 0
-498.288 -398.36 298.552 0 255 0
-504.284 -381.924 302.125 0 255 0
-498.555 -383.671 296.799 0 255 0
-504.794 -381.71 300.541 0 255 0
-497.209 -395.549 302.728 0 255 0
-500.723 -394.658 298.296 0 255 0
-498.518 -373.678 295.563 0 255 0
-502.314 -377.353 299.483 0 255 0
-501.42 -397.095 296.063 0 255 0
-501.459 -386.421 301.65 0 255 0
-498.84 -395.913 304.689 0 255 0
-503.116 -390.62 302.383 0 255 0
-497.028 -388.517 296.866 0 255 0
-497.508 -381.393 295.961 0 255 0
-502.784 -386.471 295.691 0 255 0
-501.519 -390.49 302.25 0 255 0
-495.859 -384.493 304.209 0 255 0
-495.839 -398.484 304.737 0 255 0
-495.775 -375.264 301.027 0 255 0
-499.408 -391.822 296.186 0 255 0
-495.069 -387.736 302.929 0 255 0
-504.707 -381.074 300.97 0 255 0
-497.717 -387.223 303.373 0 255 0
-502.168 -382.012 300.45 0 255 0
-496.434 -396.516 296.846 0 255 0
-498.845 -393.508 300.498 0 255 0
-500.637 -397.51 301.824 0 255 0
-504.731 -378.086 296.619 0 255 0
-502.93 -374.134 299.761 0 255 0
-500.315 -385.888 300.822 0 255 0
-501.289 -392.174 302.079 0 255 0
-502.875 -399.961 296.91 0 255 0
-498.825 -382.142 300.7 0 255 0
-499.127 -385.856 303.329 0 255 0
-495.029 -382.761 304.691 0 255 0
-502.863 -390.048 300.335 0 255 0
-499.677 -371.107 296.511 0 255 0
-495.653 -383.893 304.286 0 255 0
-502.238 -372.732 296.32 0 255 0
-504.708 -375.119 300.3 0 255 0
-502.655 -380.349 296.885 0 255 0
-502.408 -383.013 298.854 0 255 0
-495.043 -382.612 302.668 0 255 0
-499.063 -379.84 297.07 0 255 0
-498.16 -378.425 300.979 0 255 0
-495.896 -372.227 298.072 0 255 0
-498.065 -390.024 295.039 0 255 0
-502.592 -390.566 300.127 0 255 0
-497.76 -373.16 296.356 0 255 0
-495.84 -393.952 296.068 0 255 0
-497.5 -380.763 300.515 0 255 0
-504.678 -376.932 295.452 0 255 0
-498.497 -395.587 297.817 0 255 0
-498.692 -390.437 303.935 0 255 0
-504.09 -398.899 296.601 0 255 0
-496.77 -393.16 304.663 0 255 0
-501.029 -387.184 303.232 0 255 0
-500.168 -386.104 304.797 0 255 0
-502.358 -393.393 301.219 0 255 0
-504.573 -378.046 297.607 0 255 0
-500.531 -383.47 300.892 0 255 0
-502.119 -376.715 303.558 0 255 0
-498.652 -372.053 299.839 0 255 0
-499.982 -386.637 303.784 0 255 0
-499.635 -372.169 303.325 0 255 0
-496.185 -371.389 302.77 0 255 0
-501.205 -375.605 303.205 0 255 0
-500.295 -397.716 295.882 0 255 0
-503.593 -391.16 298.183 0 255 0
-499.251 -390.543 301.994 0 255 0
-501.431 -385.44 297.231 0 255 0
-504.451 -376.693 295.279 0 255 0
-497.448 -376.559 303.532 0 255 0
-498.275 -380.447 297.507 0 255 0
-498.471 -393.577 298.243 0 255 0
-499.796 -383.869 303.018 0 255 0
-500.747 -399.71 297.664 0 255 0
-499.756 -391.839 295.088 0 255 0
-497.672 -390.333 296.488 0 255 0
-500.135 -383.38 304.615 0 255 0
-500.209 -379.045 298.537 0 255 0
-503.843 -390.727 299.067 0 255 0
-500.354 -384.286 301.694 0 255 0
-495.303 -382.919 301.131 0 255 0
-498.096 -385.353 297.768 0 255 0
-504.254 -390.411 300.625 0 255 0
-498.802 -382.267 300.851 0 255 0
-501.514 -387.208 298.455 0 255 0
-498.588 -381.056 297.872 0 255 0
-500.868 -383.031 301.043 0 255 0
-501.106 -397.481 299.546 0 255 0
-502.927 -377.374 297.961 0 255 0
-502.232 -383.127 302.754 0 255 0
-496.761 -382.326 302.65 0 255 0
-501.528 -377.789 300.547 0 255 0
-497.969 -382.466 298.658 0 255 0
-496.179 -380.159 301.178 0 255 0
-496.038 -384.422 304.983 0 255 0
-499.44 -384.94 300.725 0 255 0
-502.805 -392.659 300.632 0 255 0
-504.229 -379.151 297.677 0 255 0
-496.334 -397.88 302.002 0 255 0
-500.511 -375.36 296.913 0 255 0
-504.078 -399.673 296.054 0 255 0
-500.467 -392.853 297.052 0 255 0
-504.528 -395.105 296.137 0 255 0
-495.958 -379.325 304.419 0 255 0
-504.085 -372.533 304.451 0 255 0
-498.038 -383.948 300.431 0 255 0
-501.381 -373.212 296.541 0 255 0
-497.643 -374.194 296.921 0 255 0
-497.767 -372.62 295.722 0 255 0
-499.642 -385.045 301.082 0 255 0
-503.626 -395.642 299.36 0 255 0
-497.967 -385.764 303.971 0 255 0
-495.688 -387.078 296.577 0 255 0
-504.739 -378.348 302.063 0 255 0
-502.541 -370.266 303.652 0 255 0
-497.017 -370.741 299.97 0 255 0
-496.45 -379.557 303.099 0 255 0
-498.975 -382.042 302.782 0 255 0
-496.249 -394.243 297.298 0 255 0
-499.612 -386.579 302.649 0 255 0
-504.369 -371.65 296.437 0 255 0
-499.395 -390.454 298.599 0 255 0
-498.257 -373.008 296.884 0 255 0
-504.096 -389.984 298.937 0 255 0
-502.181 -375.517 301.702 0 255 0
-503.091 -383.016 296.497 0 255 0
-495.881 -398.793 301.173 0 255 0
-499.67 -390.248 303.708 0 255 0
-504.494 -379.914 295.5 0 255 0
-499.466 -385.379 304.439 0 255 0
-495.914 -384.939 297.543 0 255 0
-500.71 -383.394 303.219 0 255 0
-496.236 -375.3 300.076 0 255 0
-499.004 -392.629 298.258 0 255 0
-498.701 -385.307 303.155 0 255 0
-502.313 -385.334 303.448 0 255 0
-496.813 -386.587 301.695 0 255 0
-502.302 -390.673 297.949 0 255 0
-501.665 -371.709 295.932 0 255 0
-502.448 -382.719 300.363 0 255 0
-500.571 -394.036 301.295 0 255 0
-501.222 -370.81 300.41 0 255 0
-495.272 -397.673 295.814 0 255 0
-499.736 -371.733 304.649 0 255 0
-503.571 -379.751 297.379 0 255 0
-498.803 -379.547 300.989 0 255 0
-496.706 -379.675 299.764 0 255 0
-500.383 -376.378 297.947 0 255 0
-499.98 -390.23 299.712 0 255 0
-501.972 -377.448 303.413 0 255 0
-498.895 -395.094 300.31 0 255 0
-500.95 -382.643 299.145 0 255 0
-500.39 -371.125 302.923 0 255 0
-497.154 -374.966 304.849 0 255 0
-496.052 -373.342 296.225 0 255 0
-495.34 -383.825 296.737 0 255 0
-497.786 -396.5 304.238 0 255 0
-500.875 -396.204 295.293 0 255 0
-497.429 -371.872 302.365 0 255 0
-499.84 -383.282 304.555 0 255 0
-498.866 -386.608 297.202 0 255 0
-501.7 -399.238 303.193 0 255 0
-503.001 -389.758 304.407 0 255 0
-497.524 -371.682 296.517 0 255 0
-497.513 -388.865 300.679 0 255 0
-504.628 -375.139 299.904 0 255 0
-496.063 -384.892 303.269 0 255 0
-501.696 -386.461 302.465 0 255 0
-499.296 -392.425 295.458 0 255 0
-499.887 -381.964 296.557 0 255 0
-499.336 -387.265 298.278 0 255 0
-503.169 -382.745 295.587 0 255 0
-502.859 -381 295.433 0 255 0
-495.931 -382.83 298.318 0 255 0
-495.891 -373.821 297.939 0 255 0
-495.622 -385.104 299.564 0 255 0
-498.269 -394.902 304.368 0 255 0
-496.363 -372.069 298.31 0 255 0
-504.813 -385.981 295.951 0 255 0
-504.042 -370.34 296.389 0 255 0
-498.767 -395.837 301.546 0 255 0
-504.69 -388.892 303.867 0 255 0
-495.158 -382.048 296.873 0 255 0
-502.418 -389.155 301.951 0 255 0
-503.35 -387.763 299.307 0 255 0
-497.418 -387.871 302.282 0 255 0
-495.735 -385.688 304.631 0 255 0
-496.415 -384.975 302.86 0 255 0
-504.239 -396.961 304.193 0 255 0
-495.016 -378.194 296.336 0 255 0
-496.385 -387.35 295.036 0 255 0
-500.989 -376.309 302.525 0 255 0
-495.76 -397.205 304.964 0 255 0
-498.492 -384.456 296.562 0 255 0
-503.177 -394.222 298.083 0 255 0
-497.982 -388.18 300.741 0 255 0
-502.743 -390.831 302.593 0 255 0
-500.814 -378.909 302.835 0 255 0
-495.822 -375.419 296.892 0 255 0
-500.437 -377.477 304.57 0 255 0
-496.372 -382.219 299.709 0 255 0
-502.661 -377.984 302.289 0 255 0
-503.08 -371.271 296.039 0 255 0
-495.238 -391.94 296.899 0 255 0
-502.759 -397.888 301.481 0 255 0
-504.636 -380.272 295.57 0 255 0
-499.567 -397.257 298.325 0 255 0
-499.212 -374.523 301.928 0 255 0
-500.589 -393.385 301.978 0 255 0
-501.886 -387.468 302.319 0 255 0
-499.197 -391.127 304.19 0 255 0
-497.725 -392.035 296.159 0 255 0
-502.133 -397.596 300.401 0 255 0
-499.221 -378.569 298.769 0 255 0
-502.582 -381.925 302.927 0 255 0
-498.38 -384.876 302.882 0 255 0
-495.365 -385.726 301.764 0 255 0
-504.977 -394.648 295.089 0 255 0
-500.038 -397.112 300.711 0 255 0
-504.98 -383.104 296.326 0 255 0
-502.212 -382.017 296.596 0 255 0
-496.932 -389.686 303.937 0 255 0
-504.01 -387.703 295.056 0 255 0
-497.517 -379.923 297.899 0 255 0
-497.217 -377.807 303.131 0 255 0
-502.981 -372.553 304.433 0 255 0
-500.116 -389.547 297.339 0 255 0
-498.225 -374.497 303.64 0 255 0
-497.928 -370.249 295.203 0 255 0
-500.891 -398.391 299.356 0 255 0
-499.828 -371.2 303.74 0 255 0
-503.217 -382.291 297.252 0 255 0
-501.798 -384.607 300.396 0 255 0
-502.44 -386.5 300.491 0 255 0
-496.995 -387.988 301.366 0 255 0
-496.218 -387.227 296.703 0 255 0
-502.53 -389.005 302.577 0 255 0
-501.765 -382.59 299.522 0 255 0
-499.671 -396.165 304.731 0 255 0
-504.655 -394.439 301.216 0 255 0
-503.435 -386.907 303.988 0 255 0
-501.912 -373.558 304.052 0 255 0
-500.419 -386.506 304.976 0 255 0
-498.91 -372.93 301.438 0 255 0
-504.059 -396.312 296.051 0 255 0
-501.083 -391.493 301.197 0 255 0
-499.486 -386.962 298.251 0 255 0
-504.589 -387.845 299.151 0 255 0
-502.773 -399.577 302.464 0 255 0
-503.783 -399.904 296.012 0 255 0
-502.59 -381.563 296.185 0 255 0
-499.17 -394.46 296.359 0 255 0
-499.03 -392.376 296.159 0 255 0
-501.361 -385.926 297.98 0 255 0
-500.562 -388.436 295.489 0 255 0
-495.702 -372.785 295.125 0 255 0
-500.109 -381.322 301.163 0 255 0
-504.485 -385.654 298.813 0 255 0
-498.772 -393.823 302.523 0 255 0
-501.075 -398.889 296.092 0 255 0
-498.103 -399.501 301.219 0 255 0
-503.235 -392.673 301.135 0 255 0
-503.682 -397.633 299.593 0 255 0
-496.309 -378.448 295.534 0 255 0
-501.515 -378.06 303.449 0 255 0
-502.115 -373.562 301.222 0 255 0
-499.706 -381.632 301.709 0 255 0
-496.939 -398.209 297.18 0 255 0
-503.002 -372.003 297.635 0 255 0
-495.647 -391.512 297.85 0 255 0
-498.02 -380.432 303.497 0 255 0
-501.583 -393.66 297.549 0 255 0
-499.78 -398.957 300.283 0 255 0
-503.867 -395.243 297.556 0 255 0
-502.047 -398.793 304.657 0 255 0
-504.449 -387.835 301.963 0 255 0
-500.204 -379.973 298.591 0 255 0
-495.806 -389.254 295.582 0 255 0
-504.79 -373.319 298.327 0 255 0
-504.777 -382.721 298.145 0 255 0
-503.904 -396.865 300.127 0 255 0
-500.627 -391.633 301.954 0 255 0
-495.181 -395.461 304.56 0 255 0
-496.942 -370.99 300.716 0 255 0
-502.131 -391.234 295.415 0 255 0
-499.042 -377.869 298.757 0 255 0
-500.439 -380.53 298.097 0 255 0
-504.972 -398.016 295.274 0 255 0
-500.846 -392.762 302.083 0 255 0
-499.738 -373.596 299.299 0 255 0
-503.069 -378.791 295.909 0 255 0
-500.074 -388.846 304.812 0 255 0
-504.005 -384.473 297.809 0 255 0
-500.061 -376.81 295.591 0 255 0
-498.472 -390.01 299.603 0 255 0
-499.155 -377.295 295.73 0 255 0
-498.946 -397.653 295.278 0 255 0
-500.082 -390.08 302.027 0 255 0
-504.742 -386.097 301.58 0 255 0
-495.747 -393.856 303.593 0 255 0
-496.39 -395.097 301.871 0 255 0
-501.812 -379.635 304.168 0 255 0
-498.017 -393.106 300.823 0 255 0
-497.861 -371.869 297.461 0 255 0
-498.788 -387.608 299.665 0 255 0
-502.317 -399.298 298.406 0 255 0
-502.682 -394.301 302.687 0 255 0
-504.384 -376.522 303.575 0 255 0
-504.255 -385.364 304.248 0 255 0
-495.202 -372.577 304.452 0 255 0
-496.765 -388.711 298.814 0 255 0
-495.344 -372.03 298.513 0 255 0
-503.944 -395.324 302.846 0 255 0
-496.401 -391.036 303.33 0 255 0
-504.692 -373.516 302.182 0 255 0
-497.909 -378.04 299.055 0 255 0
-498.269 -385.83 304.229 0 255 0
-501.163 -380.388 298.851 0 255 0
-497.552 -391.465 303.051 0 255 0
-503.489 -386.525 303.206 0 255 0
-503.61 -397.043 304.199 0 255 0
-501.933 -380.152 302.469 0 255 0
-497.647 -371.264 303.837 0 255 0
-502.526 -377.693 303.988 0 255 0
-503.471 -372.7 304.841 0 255 0
-502.744 -373.516 302.853 0 255 0
-501.589 -385.938 302.993 0 255 0
-503.569 -377.44 299.199 0 255 0
-502.356 -380.226 297.036 0 255 0
-497.652 -374.086 295.34 0 255 0
-500.938 -390.626 303.517 0 255 0
-497.349 -380.259 296.152 0 255 0
-504.466 -374.167 300.499 0 255 0
-502.394 -381.141 297.097 0 255 0
-495.362 -370.186 299.927 0 255 0
-495.163 -386.097 304.823 0 255 0
-500.368 -389.86 295.721 0 255 0
-496.343 -382.865 301.438 0 255 0
-498.004 -375.637 303.784 0 255 0
-503.999 -387.109 295.425 0 255 0
-495.894 -372.238 295.624 0 255 0
-504.887 -393.897 298.643 0 255 0
-497.617 -383.815 303.316 0 255 0
-502.165 -395.916 299.121 0 255 0
-497.851 -390.865 301.908 0 255 0
-495.126 -396.594 300.086 0 255 0
-501.91 -388.063 301.013 0 255 0
-497.542 -384.134 298.601 0 255 0
-503.796 -393.723 304.459 0 255 0
-495.849 -393.567 295.21 0 255 0
-501.652 -383.63 297.499 0 255 0
-499.274 -397.181 298.013 0 255 0
-503.429 -376.262 297.202 0 255 0
-503.997 -375.999 299.022 0 255 0
-500.185 -379.954 296.092 0 255 0
-496.657 -379.124 303.327 0 255 0
-502.289 -398.328 302.726 0 255 0
-498.766 -388.747 298.844 0 255 0
-499.349 -390.104 297.185 0 255 0
-495.025 -399.038 299.986 0 255 0
-500.896 -380.841 297.326 0 255 0
-496.486 -371.661 304.204 0 255 0
-496.724 -398.795 304.849 0 255 0
-504.917 -380.119 304.477 0 255 0
-504.487 -391.009 302.417 0 255 0
-500.159 -381.848 303.898 0 255 0
-500.996 -387.692 297.091 0 255 0
-495.564 -391.904 301.397 0 255 0
-503.302 -370.712 301.146 0 255 0
-495.113 -379.092 303.089 0 255 0
-501.763 -388.436 297.868 0 255 0
-502.935 -393.751 301.764 0 255 0
-501.096 -377.743 297.156 0 255 0
-503.456 -387.723 298.695 0 255 0
-500.694 -370.885 296.188 0 255 0
-503.94 -395.889 299.477 0 255 0
-502.493 -385.199 303.959 0 255 0
-495.218 -371.441 299.267 0 255 0
-501.509 -387.898 302.529 0 255 0
-496.505 -373.74 296.147 0 255 0
-498.077 -384.132 296.869 0 255 0
-502.238 -380.241 302.282 0 255 0
-499.926 -374.043 301.354 0 255 0
-499.294 -380.982 299.021 0 255 0
-501.534 -398.712 300.69 0 255 0
-499.213 -380.891 304.808 0 255 0
-495.753 -397.987 303.522 0 255 0
-501.738 -395.568 295.324 0 255 0
-499.738 -396.935 302.015 0 255 0
-499.936 -381.294 297.606 0 255 0
-497.492 -379.642 301.519 0 255 0
-499.017 -393.556 299.691 0 255 0
-495.384 -397.246 302.689 0 255 0
-503.7 -381.072 298.701 0 255 0
-502.208 -385.508 296.673 0 255 0
-498.944 -379.547 304.313 0 255 0
-503.985 -382.442 301.875 0 255 0
-497.7 -396.572 301.374 0 255 0
-502.511 -379.401 295.178 0 255 0
-501.077 -393.57 296.56 0 255 0
-502.386 -371.068 295.4 0 255 0
-495.46 -383.714 297.004 0 255 0
-497.624 -392.395 301.883 0 255 0
-498.158 -373.408 302.721 0 255 0
-502.978 -375.046 298.004 0 255 0
-504.043 -380.186 300.463 0 255 0
-504.128 -390.342 304.671 0 255 0
-504.842 -371.899 303.391 0 255 0
-497.495 -379.395 297.837 0 255 0
-501.632 -395.287 300.246 0 255 0
-499.755 -397.734 304.756 0 255 0
-496.582 -375.617 296.112 0 255 0
-498.952 -396.988 301.471 0 255 0
-502.136 -375.113 300.825 0 255 0
-501.972 -372.661 298.36 0 255 0
-496.907 -376.909 301.135 0 255 0
-495.999 -379.84 303.539 0 255 0
-498.805 -389.4 295.548 0 255 0
-500.113 -388.21 295.082 0 255 0
-498.654 -384.037 297.993 0 255 0
-499.29 -378.301 296.34 0 255 0
-503.561 -387.072 303.64 0 255 0
-504.753 -381.54 304.917 0 255 0
-501.199 -376.062 303.594 0 255 0
-499.01 -388.344 297.529 0 255 0
-500.566 -378.687 301.409 0 255 0
-502.185 -378.091 301.366 0 255 0
-496.877 -381.036 296.835 0 255 0
-504.149 -396.051 301.174 0 255 0
-497.781 -396.87 304.612 0 255 0
-500.241 -370.692 301.215 0 255 0
-503.708 -398.407 297.057 0 255 0
-498.084 -371.993 299.768 0 255 0
-500.127 -384.507 299.972 0 255 0
-497.586 -387.862 296.222 0 255 0
-498.114 -388.492 296.404 0 255 0
-495.895 -395.918 298.601 0 255 0
-496.528 -393.695 303.197 0 255 0
-504.287 -372.8 304.322 0 255 0
-501.917 -380.051 300.602 0 255 0
-500.845 -393.774 299.61 0 255 0
-499.364 -371.523 303.365 0 255 0
-504.911 -391.292 296.576 0 255 0
-499.736 -398.635 300.282 0 255 0
-495.115 -397.86 301.398 0 255 0
-504.731 -381.036 304.647 0 255 0
-504.826 -375.296 299.986 0 255 0
-497.197 -379.637 303.427 0 255 0
-500.684 -397.932 301.113 0 255 0
-503.495 -384.031 295.977 0 255 0
-503.038 -398.377 296.489 0 255 0
-495.555 -387.409 296.412 0 255 0
-495.543 -384.904 299.586 0 255 0
-498.616 -380.528 296.4 0 255 0
-500.583 -379.278 303.691 0 255 0
-501.309 -373.048 297.731 0 255 0
-496.559 -394.858 296.987 0 255 0
-499.492 -394.086 301.704 0 255 0
-498.976 -381.505 301.743 0 255 0
-503.589 -373.775 298.744 0 255 0
-501.624 -388.933 295.885 0 255 0
-495.473 -397.032 300.135 0 255 0
-495.978 -396.48 304.278 0 255 0
-503.146 -397.968 297.269 0 255 0
-503.196 -383.958 301.722 0 255 0
-497.82 -370.678 302.659 0 255 0
-496.765 -390.789 301.436 0 255 0
-497.285 -373.956 298.812 0 255 0
-496.265 -396.12 303.6 0 255 0
-496.375 -387.246 295.026 0 255 0
-501.128 -384.153 302.394 0 255 0
-497.938 -391.757 299.359 0 255 0
-502.318 -373.383 295.906 0 255 0
-500.728 -396.694 297.042 0 255 0
-504.929 -378.428 299.527 0 255 0
-497.959 -398.421 296.193 0 255 0
-496.603 -393.669 299.232 0 255 0
-501.816 -376.169 302.176 0 255 0
-497.452 -395.238 304.59 0 255 0
-501.381 -391.072 297.771 0 255 0
-502.705 -393.821 302.648 0 255 0
-503.003 -370.136 304.099 0 255 0
-498.272 -381.754 296.403 0 255 0
-497.017 -386.479 304.579 0 255 0
-500.267 -383.7 297.71 0 255 0
-500.181 -374.264 298.074 0 255 0
-499.586 -385.535 303.8 0 255 0
-500.252 -371.61 296.251 0 255 0
-499.266 -388.47 296.614 0 255 0
-501.172 -394.816 300.624 0 255 0
-502.009 -374.26 298.742 0 255 0
-498.063 -375.061 303.514 0 255 0
-496.318 -382.216 297.309 0 255 0
-503.664 -377.501 300.652 0 255 0
-495.796 -383.198 300.397 0 255 0
-497.392 -375.3 296.328 0 255 0
-495.065 -384.618 296.366 0 255 0
-500.677 -394.485 300.87 0 255 0
-503.996 -374.122 296.603 0 255 0
-502.704 -393.506 301.161 0 255 0
-500.105 -388.908 302.653 0 255 0
-504.663 -391.066 298.331 0 255 0
-501.839 -370.327 302.548 0 255 0
-496.076 -372.554 303.485 0 255 0
-501.026 -389.451 302.604 0 255 0
-495.749 -387.658 304.775 0 255 0
-495.677 -391.916 299.509 0 255 0
-498.106 -380.955 304.774 0 255 0
-504.693 -379.254 298.655 0 255 0
-495.61 -374.534 295.442 0 255 0
-504.813 -396.331 295.776 0 255 0
-499.896 -391.895 304.827 0 255 0
-501.102 -393.626 296.71 0 255 0
-504.726 -386.7 297.94 0 255 0
-498.178 -380.204 303.954 0 255 0
-495.308 -377.962 296.18 0 255 0
-501.823 -371.084 301.017 0 255 0
-497.055 -397.025 303.787 0 255 0
-502.299 -373.267 295.673 0 255 0
-502.499 -392.776 296.574 0 255 0
-501.556 -384.587 302.459 0 255 0
-504.317 -393.924 304.441 0 255 0
-500.814 -384.628 296.985 0 255 0
-498.996 -372.009 302.447 0 255 0
-503.673 -396.449 295.931 0 255 0
-498.286 -388.632 301.974 0 255 0
-496.684 -376.888 304.037 0 255 0
-500.086 -380.455 299.324 0 255 0
-501.411 -390.932 303.202 0 255 0
-499.113 -391.839 303.96 0 255 0
-500.689 -384.242 304.258 0 255 0
-503.141 -388.562 300.617 0 255 0
-501.18 -394.199 304.748 0 255 0
-495.336 -384.534 295.371 0 255 0
-500.558 -390.824 300.294 0 255 0
-498.596 -394.65 302.197 0 255 0
-502.039 -382.37 297.527 0 255 0
-504.275 -399.566 303.007 0 255 0
-502.268 -386.732 302.805 0 255 0
-496.411 -392.84 303.304 0 255 0
-504.917 -392.288 298.487 0 255 0
-501.124 -386.625 302.605 0 255 0
-500.939 -391.25 299.705 0 255 0
-500.927 -395.66 296.292 0 255 0
-496.787 -371.914 295.252 0 255 0
-496.092 -390.99 299.326 0 255 0
-496.631 -395.867 303.981 0 255 0
-501.93 -383.469 296.292 0 255 0
-503.944 -383.265 299.935 0 255 0
-499.357 -396.677 304.314 0 255 0
-499.374 -376.867 295.998 0 255 0
-499.394 -394.452 298.297 0 255 0
-501.825 -399.562 299.427 0 255 0
-501.85 -386.553 296.754 0 255 0
-497.082 -397.745 302.327 0 255 0
-503.613 -384.849 303.609 0 255 0
-503.099 -388.257 297.943 0 255 0
-501.317 -382.015 296.673 0 255 0
-496.181 -392.315 298.409 0 255 0
-501.945 -397.189 302.545 0 255 0
-499.07 -397.277 297.353 0 255 0
-498.442 -379.828 297.185 0 255 0
-503.104 -377.987 303.511 0 255 0
-495.142 -384.822 298.42 0 255 0
-501.281 -383.547 299.069 0 255 0
-495.287 -372.192 304.712 0 255 0
-500.337 -371.201 302.899 0 255 0
-504.289 -374.478 295.408 0 255 0
-503.737 -374.344 297.646 0 255 0
-503.364 -384.896 296.876 0 255 0
-496.696 -371.054 298.486 0 255 0
-496.655 -377.8 297.086 0 255 0
-497.244 -374.53 297.736 0 255 0
-498.601 -397.791 297.09 0 255 0
-501.818 -382.696 298.95 0 255 0
-498.386 -373.019 304.783 0 255 0
-496.82 -388.104 295.186 0 255 0
-498.207 -389.297 300.757 0 255 0
-502.681 -374.124 298.413 0 255 0
-499.461 -388.925 302.642 0 255 0
-497.033 -390.248 297.766 0 255 0
-495.992 -384.009 299.255 0 255 0
-496.432 -384.437 296.98 0 255 0
-502.964 -375.25 301.022 0 255 0
-499.565 -399.774 301.547 0 255 0
-496.474 -394.618 301.844 0 255 0
-504.3 -393.111 295.665 0 255 0
-499.844 -386.124 301.927 0 255 0
-502.206 -376.519 295.574 0 255 0
-504.276 -391.124 304.875 0 255 0
-497.161 -391.838 303.282 0 255 0
-503.264 -391.784 304.558 0 255 0
-495.091 -371.568 296.957 0 255 0
-501.775 -378.734 301.613 0 255 0
-496.648 -399.316 304.405 0 255 0
-504.832 -382.704 298.601 0 255 0
-495.99 -388.17 302.167 0 255 0
-499.612 -385.612 302.591 0 255 0
-499.088 -392.755 303.755 0 255 0
-497.173 -375.846 296.142 0 255 0
-497.146 -382.247 303.503 0 255 0
-496.008 -384.349 296.252 0 255 0
-500.079 -387.156 304.627 0 255 0
-502.404 -381.601 300.475 0 255 0
-498.149 -376.937 298.405 0 255 0
-500.879 -376.381 296.719 0 255 0
-503.598 -398.009 300.707 0 255 0
-503.161 -394.718 295.793 0 255 0
-495.131 -398.49 300.926 0 255 0
-499.825 -389.924 297.155 0 255 0
-497.137 -384.99 300.049 0 255 0
-498.419 -383.046 298.825 0 255 0
-496.851 -395.913 304.823 0 255 0
-502.74 -377.829 301.298 0 255 0
-498.167 -383.151 301.487 0 255 0
-495.253 -396.194 297.641 0 255 0
-498.807 -394.793 298.577 0 255 0
-498.639 -374.724 296.57 0 255 0
-499.394 -377.08 304.967 0 255 0
-496.167 -386.715 295.558 0 255 0
-497.156 -373.276 299.365 0 255 0
-500.552 -384.179 297.335 0 255 0
-498.468 -383.128 297.846 0 255 0
-504.877 -396.464 303.446 0 255 0
-499.319 -396.84 296.212 0 255 0
-501.447 -398.673 304.408 0 255 0
-502.049 -370.731 297.855 0 255 0
-497.269 -395.604 297.837 0 255 0
-498.433 -388.972 298.134 0 255 0
-501.62 -374.45 299.468 0 255 0
-502.792 -387.517 303.029 0 255 0
-503.567 -387.457 301.004 0 255 0
-502.861 -373.84 304.522 0 255 0
-497.626 -381.492 304.4 0 255 0
-497.063 -399.637 303.601 0 255 0
-501.496 -375.844 301.059 0 255 0
-501.775 -374.443 302.37 0 255 0
-496.532 -371.966 300.746 0 255 0
-498.397 -370.376 302.963 0 255 0
-503.937 -373.816 295.682 0 255 0
-504.9 -379.482 300.763 0 255 0
-503.618 -385.438 302.371 0 255 0
-499.234 -376.721 300.285 0 255 0
-499.368 -395.523 296.792 0 255 0
-502.972 -393.631 295.262 0 255 0
-499.624 -389.308 303.74 0 255 0
-501.188 -389.082 297.64 0 255 0
-500.229 -380.737 300.77 0 255 0
-504.761 -383.148 299.562 0 255 0
-502.697 -386.003 300.16 0 255 0
-499.05 -398.206 304.571 0 255 0
-503.169 -392.115 298.989 0 255 0
-498.317 -377.183 304.603 0 255 0
-495.261 -371.778 296.013 0 255 0
-504.976 -386.631 300.844 0 255 0
-499.207 -399.023 298.516 0 255 0
-498.344 -382.794 298.051 0 255 0
-496.511 -374.149 297.576 0 255 0
-498.775 -373.826 300.188 0 255 0
-498.415 -376.538 299.13 0 255 0
-495.962 -385.135 302.663 0 255 0
-499.345 -389.971 296.594 0 255 0
-495.669 -389.831 301.594 0 255 0
-498.629 -394.622 303.135 0 255 0
-495.203 -383.212 298.335 0 255 0
-499.215 -399.399 304.53 0 255 0
-501.127 -379.887 298.575 0 255 0
-503.457 -374.61 301.792 0 255 0
-501.125 -384.962 302.787 0 255 0
-504.219 -375.985 297.183 0 255 0
-497.592 -386.729 301.991 0 255 0
-495.906 -384.075 300.902 0 255 0
-498.813 -371.695 300.256 0 255 0
-502.21 -392.757 297.553 0 255 0
-495.674 -389.462 303.741 0 255 0
-503.032 -373.223 295.776 0 255 0
-499.45 -385.643 297.98 0 255 0
-496.569 -372.715 303.372 0 255 0
-500.001 -382.831 295.304 0 255 0
-495.697 -377.148 303.581 0 255 0
-500.542 -389.935 297.842 0 255 0
-503.857 -376.511 296.601 0 255 0
-501.533 -385.092 301.278 0 255 0
-496.255 -377.71 301.578 0 255 0
-496.238 -375.629 300.1 0 255 0
-500.612 -386.973 300.549 0 255 0
-495.294 -384.692 297.972 0 255 0
-496.466 -373.348 304.523 0 255 0
-501.875 -375.42 296.226 0 255 0
-504.196 -376.661 299.988 0 255 0
-504.177 -391.714 295.963 0 255 0
-497.087 -379.625 301.885 0 255 0
-500.249 -376.745 304.144 0 255 0
-499.115 -379.578 300.156 0 255 0
-496.34 -375.112 298.659 0 255 0
-501.959 -373.691 299.137 0 255 0
-495.75 -378.775 295.625 0 255 0
-495.988 -386.365 295.533 0 255 0
-499.92 -374.308 299.357 0 255 0
-495.416 -381.971 302.029 0 255 0
-501.805 -397.13 299.534 0 255 0
-496.724 -378.051 304.876 0 255 0
-501.488 -379.287 299.09 0 255 0
-502.366 -374.75 302.163 0 255 0
-504.32 -382.479 299.589 0 255 0
-501.013 -375.876 303.767 0 255 0
-495.854 -392.131 297.557 0 255 0
-497.612 -398.733 296.312 0 255 0
-504.246 -383.964 302.543 0 255 0
-498.891 -394.111 296.886 0 255 0
-501.039 -381.329 302.006 0 255 0
-497.575 -386.565 301.202 0 255 0
-497.501 -379.506 302.555 0 255 0
-497.504 -382.654 304.42 0 255 0
-496.666 -396.806 303.449 0 255 0
-498.485 -371.828 303.404 0 255 0
-497.762 -390.936 297.535 0 255 0
-500.465 -384.237 302.307 0 255 0
-503.292 -399.01 295.462 0 255 0
-496.351 -372.119 297.886 0 255 0
-497.352 -373.523 299.107 0 255 0
-501.852 -398.827 297.952 0 255 0
-500.996 -396.504 295.232 0 255 0
-501.372 -388.508 303.547 0 255 0
-503.607 -378.429 296.364 0 255 0
-500.267 -398.582 296.48 0 255 0
-495.826 -394.89 302.873 0 255 0
-498.698 -377.722 296.668 0 255 0
-504.516 -396.721 299.308 0 255 0
-498.582 -370.196 296.117 0 255 0
-497.807 -376.586 302.662 0 255 0
-499.614 -393.92 297.711 0 255 0
-496.808 -371.152 303.407 0 255 0
-496.735 -394.36 302.018 0 255 0
-499.543 -381.42 301.089 0 255 0
-502.064 -398.192 298.19 0 255 0
-504.455 -371.492 295.073 0 255 0
-497.306 -390.621 296.311 0 255 0
-502.42 -371.155 302.7 0 255 0
-502.212 -379.452 300.137 0 255 0
-504.455 -382.613 300.235 0 255 0
-502.08 -389.388 295.553 0 255 0
-501.847 -380.914 295.379 0 255 0
-495.405 -396.579 301.198 0 255 0
-501.507 -376.891 296.075 0 255 0
-501.182 -370.558 298.885 0 255 0
-499.32 -375.781 303.168 0 255 0
-496.73 -383.607 296.189 0 255 0
-498.51 -394.729 297.616 0 255 0
-498.137 -378.912 299.687 0 255 0
-502.228 -377.706 296.967 0 255 0
-496.955 -399.118 295.512 0 255 0
-497.313 -373.762 300.217 0 255 0
-495.676 -396.518 299.368 0 255 0
-502.946 -391.103 298.769 0 255 0
-498.52 -372.468 301.503 0 255 0
-500.947 -376.271 300.243 0 255 0
-501.65 -378.922 303.646 0 255 0
-502.454 -394.708 295.7 0 255 0
-504.973 -372.018 303.254 0 255 0
-504.96 -377.348 295.987 0 255 0
-499.396 -379.121 297.259 0 255 0
-495.921 -380.218 298.392 0 255 0
-495.884 -381.113 304.249 0 255 0
-502.394 -390.663 302.515 0 255 0
-500.734 -394.07 302.851 0 255 0
-499.298 -390.218 296.111 0 255 0
-502.859 -392.322 295.528 0 255 0
-502.01 -395.505 299.313 0 255 0
-502.535 -391.186 300.538 0 255 0
-495.262 -373.403 304.826 0 255 0
-497.622 -393.436 299.398 0 255 0
-497.573 -392.222 298.215 0 255 0
-500.58 -370.619 302.287 0 255 0
-503.861 -371.047 298.741 0 255 0
-501.137 -376.273 296.337 0 255 0
-499.832 -371.899 303.433 0 255 0
-499.117 -373.375 295.672 0 255 0
-504.476 -398.335 298.291 0 255 0
-499.97 -390.415 298.785 0 255 0
-495.383 -371.85 303.329 0 255 0
-502.279 -390.833 296.72 0 255 0
-500.409 -378.396 295.664 0 255 0
-499.624 -394.529 297.349 0 255 0
-501.252 -382.701 302.337 0 255 0
-497.211 -393.611 303.101 0 255 0
-496.062 -385.786 303.636 0 255 0
-503.962 -373.413 300.054 0 255 0
-497.832 -377.842 300.506 0 255 0
-496.795 -371.072 295.877 0 255 0
-495.931 -383.16 303.721 0 255 0
-499.177 -378.19 296.562 0 255 0
-502.697 -397.483 301.066 0 255 0
-503.162 -370.693 299.228 0 255 0
-504.321 -372.08 295.524 0 255 0
-495.025 -392.317 295.627 0 255 0
-496.098 -386.421 301.366 0 255 0
-504.327 -395.875 304.838 0 255 0
-497.726 -378.475 297.647 0 255 0
-498.073 -392.505 301.724 0 255 0
-501.538 -373.11 296.953 0 255 0
-501.44 -389.424 303.864 0 255 0
-503.036 -398.188 296.321 0 255 0
-499.907 -390.4 301.423 0 255 0
-495.81 -399.188 296.989 0 255 0
-503.58 -376.922 297.793 0 255 0
-500.887 -381.005 300.882 0 255 0
-500.32 -390.473 300.819 0 255 0
-499.557 -374.667 299.468 0 255 0
-496.345 -395.46 304.831 0 255 0
-497.878 -390.092 299.462 0 255 0
-500.043 -371.669 304.52 0 255 0
-503.161 -389.715 304.514 0 255 0
-503.267 -377.322 303.412 0 255 0
-503.273 -388.456 296.213 0 255 0
-497.007 -394.41 296.518 0 255 0
-496.323 -397.64 300.872 0 255 0
-496.637 -383.438 304.36 0 255 0
-495.621 -399.896 302.705 0 255 0
-503.119 -374.887 298.019 0 255 0
-500.984 -387.757 297.78 0 255 0
-498.335 -370.485 297.515 0 255 0
-504.923 -374.815 302.313 0 255 0
-496.239 -397.512 298.538 0 255 0
-498.867 -395.363 304.663 0 255 0
-502.82 -378.31 297.084 0 255 0
-497.23 -372.189 301.764 0 255 0
-503.081 -373.423 295.07 0 255 0
-497.455 -374.363 295.357 0 255 0
-495.728 -395.387 299.582 0 255 0
-500.291 -382.969 298.011 0 255 0
-502.983 -384.345 300.521 0 255 0
-497.387 -384.318 298.701 0 255 0
-504.088 -380.799 303.415 0 255 0
-499.238 -393.268 297.823 0 255 0
-495.079 -383.776 298.421 0 255 0
-501.831 -383.298 304.885 0 255 0
-504.493 -372.576 296.815 0 255 0
-502.682 -398.868 302.601 0 255 0
-495.273 -375.596 304.701 0 255 0
-501.531 -393.697 299.419 0 255 0
-501.027 -385.347 303.958 0 255 0
-503.634 -388.251 302.401 0 255 0
-502.865 -374.408 302.462 0 255 0
-497.739 -398.132 299.606 0 255 0
-501.739 -379.015 304.455 0 255 0
-503.833 -390.586 301.32 0 255 0
-498.816 -391.887 302.96 0 255 0
-499.197 -373.643 295.757 0 255 0
-496.716 -404.164 301.525 0 0 255
-496.995 -401.647 316.877 0 0 255
-495.639 -398.496 324.916 0 0 255
-496.199 -404.655 308.346 0 0 255
-497.881 -404.248 314.744 0 0 255
-504.262 -402.861 315.902 0 0 255
-502.576 -404.165 306.202 0 0 255
-500.622 -400.92 321.931 0 0 255
-500.271 -395.248 315.076 0 0 255
-497.406 -401.668 317.361 0 0 255
-501.141 -402.847 306.388 0 0 255
-504.123 -399.772 304.672 0 0 255
-503.668 -396.445 300.178 0 0 255
-499.39 -403.801 329.731 0 0 255
-503.924 -401.426 302.755 0 0 255
-495.274 -403.225 307.012 0 0 255
-500.82 -396.487 328.15 0 0 255
-496.102 -402.015 310.208 0 0 255
-504.989 -397.593 319.07 0 0 255
-496.673 -395.396 317.847 0 0 255
-504.454 -400.83 321.678 0 0 255
-498.748 -404.817 302.24 0 0 255
-503.049 -395.049 323.404 0 0 255
-500.848 -396.125 309.126 0 0 255
-502.203 -402.829 321.529 0 0 255
-504.707 -404.81 327.742 0 0 255
-497.284 -402.619 323.278 0 0 255
-500.315 -399.846 328.971 0 0 255
-502.811 -395.573 317.834 0 0 255
-503.068 -395.148 303.226 0 0 255
-504.193 -401.864 326.583 0 0 255
-499.825 -397.332 325.179 0 0 255
-503.984 -397.848 313.639 0 0 255
-503.579 -403.653 307.922 0 0 255
-495.968 -400.312 302.14 0 0 255
-497.559 -400.641 311.734 0 0 255
-495.414 -400.747 301.427 0 0 255
-501.286 -404.22 313.787 0 0 255
-498.065 -400.503 322.952 0 0 255
-499.921 -401.19 327.24 0 0 255
-502.124 -403.501 305.096 0 0 255
-498.787 -395.96 312.907 0 0 255
-499.85 -396.736 310.324 0 0 255
-500.812 -398.268 304.282 0 0 255
-499.353 -401.867 308.137 0 0 255
-495.7 -404.595 301.301 0 0 255
-501.341 -402.141 315.151 0 0 255
-499.075 -396.121 325.928 0 0 255
-500.08 -397.308 302.659 0 0 255
-501.087 -398.465 300.484 0 0 255
-502.798 -403.378 315.704 0 0 255
-495.18 -404.901 325.106 0 0 255
-498.074 -398.173 326.709 0 0 255
-501.218 -402.262 310.679 0 0 255
-498.492 -399.505 316.07 0 0 255
-498.801 -396.908 326.435 0 0 255
-501.934 -399.812 300.832 0 0 255
-496.293 -396.862 312.63 0 0 255
-502.986 -397.438 311.989 0 0 255
-498.483 -395.223 325.013 0 0 255
-497.939 -401.183 309.536 0 0 255
-495.799 -404.232 319.163 0 0 255
-500.98 -403.558 315.326 0 0 255
-502.661 -400.179 319.955 0 0 255
-497.079 -401.241 327.322 0 0 255
-497.734 -397.136 329.762 0 0 255
-497.581 -404.084 324.009 0 0 255
-503.135 -402.443 314.666 0 0 255
-500.551 -402.992 313.903 0 0 255
-502.908 -402.142 309.551 0 0 255
-498.711 -404.033 307.332 0 0 255
-495.141 -398.572 306.346 0 0 255
-498.202 -404.422 301.751 0 0 255
-504.379 -404.173 325.429 0 0 255
-501.516 -397.829 328.239 0 0 255
-499.154 -402.848 329.148 0 0 255
-498.622 -396.229 326.069 0 0 255
-498.309 -400.989 325.991 0 0 255
-500.648 -404.604 316.449 0 0 255
-501.532 -395.793 323.834 0 0 255
-504.06 -403.942 326.065 0 0 255
-499.726 -402.798 328.838 0 0 255
-500.11 -396.728 323.061 0 0 255
-501.488 -403.007 329.131 0 0 255
-495.368 -398.468 329.152 0 0 255
-496.253 -402.649 303.267 0 0 255
-504.912 -398.783 303.665 0 0 255
-504.651 -398.025 328.17 0 0 255
-502.17 -396.761 321.277 0 0 255
-500.669 -400.851 317.816 0 0 255
-504.476 -404.678 320.676 0 0 255
-495.31 -397.368 307.775 0 0 255
-502.554 -397.8 302.798 0 0 255
-501.846 -404.531 312.861 0 0 255
-502.566 -399.757 319.59 0 0 255
-500.984 -404.603 329.702 0 0 255
-497.715 -402.408 328.079 0 0 255
-500.061 -403.187 318.197 0 0 255
-504.298 -395.205 318.875 0 0 255
-498.61 -402.301 317.471 0 0 255
-498.333 -403.144 307.523 0 0 255
-504.786 -398.088 318.875 0 0 255
-495.246 -404.649 319.379 0 0 255
-500.268 -395.243 316.328 0 0 255
-501.873 -396.281 326.714 0 0 255
-495.545 -399.509 300.118 0 0 255
-502.605 -398.128 304.079 0 0 255
-500.84 -397.141 319.945 0 0 255
-499.019 -395.717 328.269 0 0 255
-499.444 -397.953 304.306 0 0 255
-502.568 -396.638 324.021 0 0 255
-503.277 -395.536 310.481 0 0 255
-499.879 -395.971 322.444 0 0 255
-496.666 -403.178 319.925 0 0 255
-495.637 -402.47 313.327 0 0 255
-496.077 -403.247 306.243 0 0 255
-495.658 -395.689 326.125 0 0 255
-495.353 -400.494 321.829 0 0 255
-504.104 -402.225 304.401 0 0 255
-501.49 -398.739 307.388 0 0 255
-498.191 -402.949 326.074 0 0 255
-502.627 -399.931 308.147 0 0 255
-496.06 -399.569 302.656 0 0 255
-500.55 -399.087 313.256 0 0 255
-502.655 -403.276 319.527 0 0 255
-500.187 -401.387 311.264 0 0 255
-499.402 -403.375 302.707 0 0 255
-495.387 -398.801 329.952 0 0 255
-500.019 -399.183 312.34 0 0 255
-501.629 -399.267 302.879 0 0 255
-504.168 -396.648 322.569 0 0 255
-504.088 -397.539 320.289 0 0 255
-498.172 -395.35 318.62 0 0 255
-495.599 -403.531 318.515 0 0 255
-497.65 -403.691 313.009 0 0 255
-498.892 -399.977 311.823 0 0 255
-504.917 -396.26 321.087 0 0 255
-501.374 -398.69 328.933 0 0 255
-500.065 -399.668 316.388 0 0 255
-504.229 -404.061 319.407 0 0 255
-501.128 -400.316 315.909 0 0 255
-495.55 -402.55 316.831 0 0 255
-504.15 -399.679 329.968 0 0 255
-500.019 -401.876 327.027 0 0 255
-499.047 -400.29 321.428 0 0 255
-504.946 -399.141 313.879 0 0 255
-500.249 -399.965 322.016 0 0 255
-504.418 -402.283 321.443 0 0 255
-504.673 -397.183 328.525 0 0 255
-495.061 -403.966 327.201 0 0 255
-495.235 -397.663 326.821 0 0 255
-497.069 -396.176 316.759 0 0 255
-498.193 -399.709 322.006 0 0 255
-503.014 -395.291 316.707 0 0 255
