ply
format ascii 1.0
comment Created by Open3D
element vertex 1444
property double x
property double y
property double z
property uchar red
property uchar green
property uchar blue
end_header
44.3465 3.55115 4.36252 255 0 0
7.52826 -0.0621067 -3.32457 255 0 0
29.1945 -4.70308 4.70338 255 0 0
34.6019 -4.99997 -1.90427 255 0 0
3.12007 3.34195 3.0953 255 0 0
12.32 -1.98439 4.29062 255 0 0
17.0382 1.17873 -1.04942 255 0 0
40.581 4.48401 1.47799 255 0 0
31.8683 0.0279527 1.60787 255 0 0
9.69438 -1.52336 -1.42398 255 0 0
39.607 -2.64429 -1.74436 255 0 0
36.9751 4.80654 -4.79662 255 0 0
12.6397 0.225841 -0.492539 255 0 0
5.53396 -0.950462 -4.59196 255 0 0
1.39445 0.765708 1.08221 255 0 0
42.0884 2.53383 2.64376 255 0 0
36.233 2.50376 1.95555 255 0 0
43.002 3.19289 2.20361 255 0 0
16.0984 4.09602 -4.85049 255 0 0
40.3184 2.32365 3.12253 255 0 0
29.436 -0.588937 -3.39035 255 0 0
26.4251 -1.93215 3.72005 255 0 0
22.0959 -0.605994 3.08269 255 0 0
32.5516 -0.0714116 3.1707 255 0 0
13.2148 -0.565896 1.96584 255 0 0
25.6701 4.0773 4.43439 255 0 0
37.0954 1.53974 -1.82627 255 0 0
23.7659 -1.37156 0.837994 255 0 0
26.7879 2.47509 -4.10913 255 0 0
40.3487 -2.66087 -2.24478 255 0 0
3.20128 2.07031 2.72896 255 0 0
14.2229 0.0391185 -1.88385 255 0 0
28.7547 1.68624 -3.0881 255 0 0
12.5577 -3.87858 -2.09128 255 0 0
37.4535 2.53802 -4.38181 255 0 0
22.2172 -3.44633 -1.7402 255 0 0
39.3171 -4.60078 -3.1308 255 0 0
4.3118 -4.27147 -4.31644 255 0 0
37.482 -3.26741 2.68308 255 0 0
33.3085 -1.50876 -0.65359 255 0 0
3.55087 -2.3703 -4.24078 255 0 0
11.8 3.77548 2.16554 255 0 0
44.6137 1.78022 4.52837 255 0 0
9.87304 -3.5393 -1.6202 255 0 0
10.9834 -4.2512 -2.38442 255 0 0
49.826 2.65141 3.19227 255 0 0
34.7114 0.87455 4.39425 255 0 0
45.3527 -2.04838 0.446595 255 0 0
4.08533 4.87536 1.94938 255 0 0
11.8638 4.4949 1.40922 255 0 0
33.3193 2.52564 -0.295235 255 0 0
10.3446 -3.86246 1.70718 255 0 0
28.2484 3.59246 -0.195244 255 0 0
18.808 4.79822 -2.1641 255 0 0
40.892 -3.5582 3.46611 255 0 0
22.8265 2.94558 1.6771 255 0 0
18.7137 3.62167 -2.06477 255 0 0
25.9116 -1.58103 -4.69875 255 0 0
30.5122 -4.00323 -2.28694 255 0 0
23.5664 4.98577 -0.747346 255 0 0
44.2446 0.331768 -1.79372 255 0 0
0.628084 -1.32262 2.24103 255 0 0
16.5513 3.73032 1.8653 255 0 0
14.3131 3.00579 -4.73519 255 0 0
36.4379 -2.93634 -1.58995 255 0 0
38.5452 2.3015 -3.40743 255 0 0
2.53482 -4.22765 -0.550007 255 0 0
49.6713 -2.3107 -0.581635 255 0 0
44.8573 2.98282 1.16654 255 0 0
36.6041 -2.07675 -0.0138438 255 0 0
28.3392 -2.94981 0.419426 255 0 0
32.0053 -0.808812 2.72942 255 0 0
19.032 -2.60034 -2.30948 255 0 0
10.4734 -0.562593 -4.1937 255 0 0
43.1659 4.4763 3.12375 255 0 0
35.2175 4.86062 1.70616 255 0 0
7.91034 0.044294 4.53512 255 0 0
11.3887 -4.4773 3.90309 255 0 0
33.0601 -2.18206 -1.00158 255 0 0
21.9835 -4.42526 -4.40473 255 0 0
46.1281 1.18955 4.22121 255 0 0
1.80045 1.80736 3.31111 255 0 0
21.0937 -0.644472 1.70534 255 0 0
43.646 3.09498 -2.85759 255 0 0
46.9853 -2.90638 1.8064 255 0 0
36.7588 1.04729 -3.52352 255 0 0
21.3354 2.30551 -4.18175 255 0 0
34.5544 2.80962 -0.913479 255 0 0
42.261 -1.20549 2.63007 255 0 0
22.2468 1.52083 2.68474 255 0 0
22.2829 -4.99118 -2.47381 255 0 0
24.1744 -0.402487 2.64249 255 0 0
38.1549 -2.96049 -2.34539 255 0 0
19.1451 -0.744234 -1.27183 255 0 0
31.4424 0.183281 1.24808 255 0 0
25.5897 3.47049 -4.45407 255 0 0
2.82559 -4.77587 1.95294 255 0 0
25.7531 1.69427 -0.69565 255 0 0
6.53123 -4.92665 4.34645 255 0 0
36.101 4.20723 -3.09356 255 0 0
47.4709 2.50519 -0.143248 255 0 0
14.3859 -2.17281 0.557718 255 0 0
29.1176 -4.32993 -4.3058 255 0 0
34.3893 -3.19723 -2.64762 255 0 0
31.6426 -0.137808 3.45109 255 0 0
42.0903 -0.16905 1.48848 255 0 0
11.6958 4.05077 4.41141 255 0 0
2.46494 0.132833 4.46605 255 0 0
47.1112 -4.16726 3.59703 255 0 0
20.353 4.3141 1.00805 255 0 0
21.281 3.77662 -4.17465 255 0 0
4.47555 -1.06409 0.020598 255 0 0
21.0401 3.09899 -2.17138 255 0 0
10.0176 0.232375 -1.34448 255 0 0
38.7584 4.51372 4.90137 255 0 0
20.3757 1.68714 -2.47454 255 0 0
18.9601 -2.7362 -2.35223 255 0 0
1.81014 -0.0143508 -0.0413306 255 0 0
8.66152 -0.619136 -3.33182 255 0 0
9.76848 3.85637 -1.91238 255 0 0
17.0818 3.13221 -3.98384 255 0 0
0.37186 -2.76934 2.32227 255 0 0
23.9825 0.321939 -1.36826 255 0 0
48.8818 -3.20123 -4.90614 255 0 0
42.987 3.91184 1.36515 255 0 0
37.8648 -0.816265 3.84266 255 0 0
41.3263 1.846 -3.52591 255 0 0
34.9476 2.78788 -1.6319 255 0 0
30.453 4.40957 -0.943392 255 0 0
21.2025 4.19646 2.7682 255 0 0
18.9844 3.83661 0.914875 255 0 0
24.5433 0.441884 -1.77958 255 0 0
48.697 -2.02306 3.867 255 0 0
9.42314 1.23781 4.82879 255 0 0
28.1612 -1.54399 0.0574415 255 0 0
10.6559 -3.04397 3.51606 255 0 0
15.625 2.88453 -0.693749 255 0 0
17.5445 -2.16587 1.09948 255 0 0
12.3931 0.629139 0.207295 255 0 0
18.1873 4.16537 -0.311994 255 0 0
46.7751 4.44928 -4.48054 255 0 0
6.31307 -1.19772 -3.86554 255 0 0
12.1981 0.805115 4.04726 255 0 0
8.48368 4.42225 3.90038 255 0 0
47.6349 -4.31417 -0.253882 255 0 0
40.6324 0.458712 -2.13115 255 0 0
18.1338 -1.67661 -2.97161 255 0 0
34.3492 2.09479 4.76947 255 0 0
23.7671 0.600386 3.30687 255 0 0
26.6354 -4.30143 0.0887613 255 0 0
3.7601 -4.07408 4.39543 255 0 0
43.2262 -3.80592 -3.31492 255 0 0
23.4117 2.66064 -1.48431 255 0 0
4.77603 -4.41403 0.118487 255 0 0
30.6626 4.70208 0.163645 255 0 0
7.77986 4.58036 -0.856915 255 0 0
8.95761 3.63116 1.90927 255 0 0
22.866 -3.66272 -1.39089 255 0 0
30.226 -2.61425 -1.00444 255 0 0
6.52425 1.08862 2.41577 255 0 0
45.9334 1.85214 1.16088 255 0 0
35.1641 1.01254 1.62387 255 0 0
34.984 -0.157821 1.0451 255 0 0
4.63606 4.75898 1.76605 255 0 0
16.1667 -1.72785 0.0500799 255 0 0
48.9783 3.33901 -1.29144 255 0 0
41.2678 -3.16338 1.72806 255 0 0
41.1435 2.47207 -3.3763 255 0 0
49.0206 3.19314 2.25126 255 0 0
38.1844 2.03072 -3.59225 255 0 0
37.8843 4.79107 4.09854 255 0 0
11.0688 1.19043 3.3457 255 0 0
22.0922 -3.80325 -0.944852 255 0 0
31.7262 -2.6772 3.59464 255 0 0
19.9358 2.97736 -1.82511 255 0 0
2.89176 3.95524 1.43015 255 0 0
48.119 4.23402 0.808366 255 0 0
33.6529 -2.73507 2.09225 255 0 0
5.00048 3.42233 3.63613 255 0 0
29.6412 -4.41693 -4.52843 255 0 0
21.6521 -0.0447434 -2.35337 255 0 0
41.9642 -2.08117 4.80023 255 0 0
13.5152 2.29508 3.40206 255 0 0
19.6411 -1.98142 1.52199 255 0 0
12.7364 -4.53883 -3.65264 255 0 0
28.9843 -3.18524 4.07331 255 0 0
16.252 -1.00266 -1.81384 255 0 0
22.5893 0.943245 -3.83971 255 0 0
18.0078 1.61823 4.84819 255 0 0
24.6178 4.91347 -3.00022 255 0 0
23.4632 -0.193863 0.137711 255 0 0
12.8675 1.78873 1.81853 255 0 0
19.8349 -2.67918 -3.05925 255 0 0
47.2189 -4.26474 0.297789 255 0 0
2.07034 -3.74767 1.79915 255 0 0
25.6818 -2.25319 -2.11771 255 0 0
44.6287 4.88563 3.6143 255 0 0
6.1781 -0.448219 2.90313 255 0 0
26.0114 2.72426 4.52727 255 0 0
13.9131 1.29386 0.724939 255 0 0
3.5215 0.0173816 3.73057 255 0 0
17.7995 0.417107 3.01337 255 0 0
35.7581 0.595966 -4.40245 255 0 0
36.5502 1.46168 3.64389 255 0 0
13.8344 2.02662 -2.81048 255 0 0
43.2994 4.75877 2.17187 255 0 0
37.9778 4.96432 1.55471 255 0 0
23.1664 1.84171 -3.12133 255 0 0
46.8238 -1.78995 1.00875 255 0 0
18.7654 4.10747 -3.79601 255 0 0
41.6058 -2.32809 1.14965 255 0 0
29.8374 3.99893 2.83081 255 0 0
7.65134 2.12084 -0.281143 255 0 0
11.3622 4.39534 -1.28477 255 0 0
42.5087 -3.38191 2.68221 255 0 0
34.6969 4.74593 1.3171 255 0 0
14.5253 -2.19981 1.23343 255 0 0
0.706228 -1.47778 -3.70397 255 0 0
5.19815 0.786085 -2.499 255 0 0
34.1951 3.96369 -3.71554 255 0 0
31.4722 1.4135 2.85613 255 0 0
26.9407 4.51851 3.65141 255 0 0
18.8446 4.61113 -3.06579 255 0 0
32.5205 0.0607527 0.482683 255 0 0
37.4932 -2.16219 3.10444 255 0 0
41.1416 3.37373 3.95642 255 0 0
6.52176 1.37306 2.3667 255 0 0
42.109 1.82656 3.24167 255 0 0
24.5103 4.61012 -3.06119 255 0 0
5.82025 -1.76063 3.59992 255 0 0
29.606 -0.62852 2.85955 255 0 0
26.7434 3.04513 -0.240612 255 0 0
17.8084 -3.17682 -4.36623 255 0 0
43.7997 2.14848 4.82881 255 0 0
25.5779 2.56365 2.69972 255 0 0
37.1809 -4.85689 3.84739 255 0 0
3.56723 -2.60944 -0.467973 255 0 0
7.67597 4.1594 4.55884 255 0 0
14.3845 0.49363 1.87824 255 0 0
24.1137 2.82177 -2.08702 255 0 0
27.7427 4.09223 2.29068 255 0 0
22.9951 -3.23393 -4.48633 255 0 0
39.5573 -1.19591 -1.78782 255 0 0
27.0435 -2.79453 4.64068 255 0 0
30.9817 -4.23236 -3.99535 255 0 0
16.2275 -1.84815 0.270141 255 0 0
8.76385 -4.32172 0.510857 255 0 0
15.7302 -4.77238 -3.50766 255 0 0
37.0882 -2.61721 1.22338 255 0 0
32.5334 -0.084346 2.87852 255 0 0
43.6844 4.58318 -1.22491 255 0 0
35.1064 3.10731 3.70969 255 0 0
18.5152 -4.47619 -0.36413 255 0 0
48.5781 -4.42458 -0.266826 255 0 0
29.0431 1.96674 -1.90773 255 0 0
42.0394 1.52451 4.29567 255 0 0
7.21575 2.04937 1.96461 255 0 0
23.1672 0.212369 -4.17286 255 0 0
30.3769 -1.03435 1.17399 255 0 0
6.77966 4.42097 1.97652 255 0 0
5.27356 -3.97605 -4.00227 255 0 0
9.44407 1.78888 3.79273 255 0 0
37.1727 1.00215 -0.81971 255 0 0
13.3532 2.82722 3.36502 255 0 0
41.4471 -3.87719 -0.302704 255 0 0
47.4984 3.97733 1.68673 255 0 0
25.3417 0.75764 -1.43317 255 0 0
49.0692 -3.89274 3.02322 255 0 0
2.5217 -4.77326 -2.3185 255 0 0
30.622 -1.44748 -2.11591 255 0 0
38.3403 2.90993 1.7259 255 0 0
45.6403 -1.00286 -2.47053 255 0 0
5.74362 -2.08396 1.38924 255 0 0
11.7256 4.2789 0.5986 255 0 0
1.01943 3.25176 1.78114 255 0 0
15.8831 4.16118 -3.87158 255 0 0
12.3326 0.111843 -2.8084 255 0 0
20.8603 -2.20691 -3.84563 255 0 0
33.1016 -3.81729 -4.67418 255 0 0
1.71895 2.67083 -3.05501 255 0 0
7.59017 -0.258341 1.06633 255 0 0
40.8653 1.032 4.25487 255 0 0
46.8108 0.747508 -4.85638 255 0 0
15.2095 -1.17176 0.567695 255 0 0
26.2983 4.41878 2.77344 255 0 0
2.78929 3.01461 -0.150638 255 0 0
2.48317 1.75622 4.25285 255 0 0
10.3431 -1.10345 -1.43408 255 0 0
49.9397 -0.234647 4.01154 255 0 0
23.8284 3.41414 -2.19647 255 0 0
37.3264 2.22809 -0.422794 255 0 0
29.1787 4.53661 4.28306 255 0 0
26.8622 -1.73519 1.77565 255 0 0
24.6926 0.463923 0.0142809 255 0 0
19.8817 -0.689795 -4.78561 255 0 0
9.56332 -4.81162 -0.378464 255 0 0
34.6563 -1.20051 3.35516 255 0 0
44.694 -3.96583 -1.13558 255 0 0
12.873 2.02763 -0.829802 255 0 0
46.0567 -3.43425 -2.25442 255 0 0
1.29699 -4.41952 2.28642 255 0 0
14.9413 1.31561 -4.81484 255 0 0
21.2289 1.3824 0.217629 255 0 0
14.2692 -1.10586 0.614647 255 0 0
35.5247 -3.15864 -0.587362 255 0 0
0.0223057 4.77502 -0.408369 255 0 0
41.5678 -4.55005 -3.5733 255 0 0
13.9365 -4.88456 4.04868 255 0 0
20.7548 -2.62437 -3.82001 255 0 0
46.5731 -3.48126 3.72207 255 0 0
32.0394 1.80838 -0.459897 255 0 0
0.535066 4.95445 4.69732 255 0 0
43.9431 -1.29932 -0.664839 255 0 0
1.065 4.85278 -4.45374 255 0 0
21.8244 0.743191 -2.0239 255 0 0
4.30412 -1.09498 1.54007 255 0 0
20.8259 -0.421303 1.95845 255 0 0
34.8759 -4.45594 -4.27525 255 0 0
21.4908 -2.04857 -3.86303 255 0 0
10.274 -0.649951 -2.94265 255 0 0
21.5953 -3.60204 3.30669 255 0 0
9.50742 -3.2673 2.62318 255 0 0
17.9566 -2.13792 2.07377 255 0 0
24.5282 1.7192 -0.679115 255 0 0
48.1852 0.0209606 2.98851 255 0 0
46.0724 -1.50256 -4.54756 255 0 0
44.4415 3.99874 2.22902 255 0 0
25.4494 2.09651 -1.01182 255 0 0
3.55516 -1.12777 -1.55294 255 0 0
6.7119 3.60256 2.90337 255 0 0
47.8016 0.938571 1.54913 255 0 0
11.8965 2.16393 -0.430343 255 0 0
4.02851 0.881572 0.662314 255 0 0
15.6384 -1.21726 -2.1129 255 0 0
20.6066 4.80321 2.06703 255 0 0
7.67067 0.839209 2.59179 255 0 0
4.69086 2.92248 -3.3458 255 0 0
14.7902 2.9116 1.66067 255 0 0
47.8291 4.10795 -1.34311 255 0 0
47.4015 -3.30258 0.127455 255 0 0
44.2248 -2.0323 0.0442542 255 0 0
0.363449 -0.949708 4.73306 255 0 0
20.6777 2.25681 -2.96964 255 0 0
17.8071 -0.621694 3.4443 255 0 0
5.55526 -1.62213 -1.25387 255 0 0
13.9952 1.10835 -3.48244 255 0 0
20.7699 -0.707606 4.20899 255 0 0
7.06212 -2.59636 -1.09661 255 0 0
12.7742 -1.27439 3.66098 255 0 0
49.8774 -3.37099 -2.44619 255 0 0
24.5213 1.83286 0.00620684 255 0 0
0.148705 -1.61417 -0.81555 255 0 0
21.393 -0.794313 -4.01173 255 0 0
46.582 -2.42793 1.16591 255 0 0
40.3894 -0.498689 0.631783 255 0 0
7.89907 1.07553 4.9748 255 0 0
21.5626 1.92203 3.11736 255 0 0
2.24945 0.843818 0.469756 255 0 0
16.195 4.04544 -1.51912 255 0 0
31.8694 1.79526 3.96766 255 0 0
9.51631 4.24184 -1.66542 255 0 0
9.06059 0.312697 -2.58791 255 0 0
15.7902 -0.981282 -2.23911 255 0 0
14.2375 1.67797 2.32468 255 0 0
23.2244 0.871223 -2.11651 255 0 0
0.339103 1.1032 -1.23841 255 0 0
8.95573 -0.114993 0.353261 255 0 0
26.6312 0.984159 -4.09092 255 0 0
44.1264 -0.574128 3.37557 255 0 0
17.727 2.32762 -0.028414 255 0 0
14.2177 -0.373523 -4.30192 255 0 0
23.5252 1.91688 -3.92521 255 0 0
48.1005 -4.87678 2.43026 255 0 0
15.9946 -1.26094 2.13941 255 0 0
12.0235 1.54517 3.10773 255 0 0
34.8118 1.27358 -4.53549 255 0 0
15.8312 -4.28488 -0.856017 255 0 0
20.2571 -0.743165 -3.62196 255 0 0
9.70646 4.43521 -4.51756 255 0 0
31.606 -3.56868 4.48159 255 0 0
2.98656 -2.12619 4.42582 255 0 0
26.0652 -2.9578 -4.4105 255 0 0
17.3619 -3.04584 2.87697 255 0 0
43.8762 -2.81751 0.206704 255 0 0
16.3555 -2.91449 4.99235 255 0 0
33.4501 1.8744 -4.56637 255 0 0
36.9454 -1.62785 4.46288 255 0 0
45.9861 4.02653 3.21837 255 0 0
36.3072 1.01425 -3.60853 255 0 0
12.4978 -2.81135 -0.211547 255 0 0
5.55209 1.70714 -4.71432 255 0 0
12.7379 -4.13768 -4.38319 255 0 0
15.1935 0.912247 -4.56838 255 0 0
18.1638 -4.63347 1.56295 255 0 0
38.8916 3.95689 -0.846284 255 0 0
48.7964 -1.32826 0.321427 255 0 0
21.0556 4.77611 -1.51672 255 0 0
21.3254 4.55841 1.37562 255 0 0
21.9079 -2.5953 1.95337 255 0 0
36.855 -4.40392 -4.53138 255 0 0
28.4134 -2.20573 -2.31373 255 0 0
4.65938 2.44031 -1.61482 255 0 0
30.7041 -2.29709 -4.99965 255 0 0
48 -4.71249 -3.70438 255 0 0
0.382651 -4.1296 -4.01176 255 0 0
30.3486 -2.48335 -3.1773 255 0 0
2.37433 -2.76128 -0.342757 255 0 0
13.199 4.65251 -4.79962 255 0 0
22.949 0.696408 1.92829 255 0 0
25.1671 2.31984 -4.39543 255 0 0
17.0451 4.28141 3.94449 255 0 0
12.2545 4.41256 -1.38585 255 0 0
12.957 4.09726 -4.1529 255 0 0
23.923 -1.64895 -4.70575 255 0 0
0.370424 -2.3937 -0.665584 255 0 0
9.53714 1.14293 -3.47179 255 0 0
32.0179 -2.03357 -4.7698 255 0 0
45.8028 -2.66557 -1.73797 255 0 0
13.0024 -4.70941 -1.86205 255 0 0
3.42266 0.998202 -4.69916 255 0 0
10.655 3.71084 -0.581544 255 0 0
22.5327 -0.397884 3.96664 255 0 0
39.738 -4.03077 1.4062 255 0 0
43.4235 -2.33548 -0.1921 255 0 0
6.29726 1.9737 1.11686 255 0 0
34.1706 1.47925 -2.9708 255 0 0
35.5665 1.60532 -2.29498 255 0 0
44.9951 1.02599 1.06431 255 0 0
38.1445 3.80329 0.225233 255 0 0
5.38834 -4.81843 4.89191 255 0 0
49.6528 -2.75383 -0.780032 255 0 0
9.08748 4.28694 -2.85946 255 0 0
46.2435 -3.20167 -4.90452 255 0 0
45.8985 -4.96481 0.00283301 255 0 0
0.880684 0.647002 -4.45421 255 0 0
28.6034 -3.06153 -4.26076 255 0 0
35.6187 1.46096 4.79057 255 0 0
30.3285 -4.91578 -1.51187 255 0 0
33.0886 -0.903916 -3.65951 255 0 0
28.8851 -4.20197 1.78661 255 0 0
5.79473 -4.87565 -4.0539 255 0 0
33.0356 2.30008 2.24578 255 0 0
26.6442 2.80194 3.07796 255 0 0
38.7738 -2.24649 1.0576 255 0 0
10.6417 -4.58351 -1.62466 255 0 0
48.3389 4.9596 1.91346 255 0 0
45.6867 2.19125 4.19085 255 0 0
1.4043 1.62237 -3.30217 255 0 0
36.8209 -4.66129 -0.62886 255 0 0
47.4088 -1.31504 -4.4952 255 0 0
22.2163 2.17076 -0.347146 255 0 0
36.5897 3.36541 -2.27461 255 0 0
20.5225 -1.38908 -2.71311 255 0 0
16.3358 -1.19062 3.39575 255 0 0
44.418 -4.59537 0.953331 255 0 0
26.001 -2.66766 -1.39669 255 0 0
8.35563 -4.32407 -0.610275 255 0 0
33.1661 -1.21384 -1.51855 255 0 0
47.9475 -4.79358 2.07383 255 0 0
11.4524 -3.24391 -4.19136 255 0 0
5.51011 -0.646124 -0.811705 255 0 0
21.3106 4.90253 3.74077 255 0 0
13.8492 -0.488567 -2.38531 255 0 0
41.434 -2.58689 -0.966682 255 0 0
16.7667 -4.07136 -4.49554 255 0 0
33.969 2.72526 4.34718 255 0 0
12.3111 4.38304 4.24105 255 0 0
7.92948 -4.06623 4.79582 255 0 0
23.4471 -3.24156 3.55187 255 0 0
19.2737 -0.0306572 2.81203 255 0 0
19.6104 0.50324 -4.64443 255 0 0
32.6477 -2.31751 -0.533252 255 0 0
6.58248 -4.53142 -0.265728 255 0 0
22.2255 -3.03702 0.950009 255 0 0
8.13884 2.332 -2.12751 255 0 0
26.2167 3.92768 3.25571 255 0 0
45.6932 -2.16847 3.68404 255 0 0
37.4223 -2.9381 -4.70512 255 0 0
8.03572 0.174608 -1.5031 255 0 0
16.749 2.48312 -0.795057 255 0 0
0.395559 -2.51572 -0.773549 255 0 0
43.4387 -4.10719 1.4941 255 0 0
24.4 2.70228 3.97458 255 0 0
11.9119 1.76525 -2.28976 255 0 0
7.73325 -2.21482 3.77442 255 0 0
7.0971 -1.98973 3.40321 255 0 0
46.9745 0.22449 2.72607 255 0 0
49.4954 -3.03203 -4.1438 255 0 0
42.6216 1.29043 2.62806 255 0 0
18.6405 -0.916089 4.54404 255 0 0
4.36848 -0.191142 -4.75223 255 0 0
27.5066 -4.15109 3.42946 255 0 0
47.8909 3.05516 4.00777 255 0 0
34.9607 -0.183487 -2.05481 255 0 0
14.2009 -4.05894 0.0585003 255 0 0
24.8426 4.20129 3.0633 255 0 0
30.382 1.47598 1.45244 255 0 0
4.01841 2.4558 -3.00316 255 0 0
6.35082 0.172064 -3.69589 255 0 0
25.3214 2.41324 0.79349 255 0 0
48.1763 -1.1741 -2.61109 255 0 0
41.9176 0.267811 1.05811 255 0 0
10.9685 4.04111 -4.23208 255 0 0
25.8021 1.66739 -3.29983 255 0 0
35.1808 -0.73881 -1.62128 255 0 0
17.4548 1.84779 2.83178 255 0 0
29.034 -0.975518 -2.1684 255 0 0
1.43126 0.13385 2.93975 255 0 0
15.6889 -3.05619 -0.601994 255 0 0
14.8201 -0.707286 -3.27514 255 0 0
37.5098 0.625164 1.65625 255 0 0
31.7167 2.70039 3.3215 255 0 0
36.7227 0.255516 0.85837 255 0 0
39.3318 1.78038 0.377485 255 0 0
41.9707 -1.62083 -0.0110563 255 0 0
32.1895 -2.58747 -2.59808 255 0 0
21.9657 3.32703 -3.05087 255 0 0
11.1541 1.0727 0.924864 255 0 0
16.0985 -2.54058 4.38998 255 0 0
39.7434 -0.310911 -1.9007 255 0 0
42.4073 4.20907 4.57008 255 0 0
47.8945 3.7421 0.451893 255 0 0
33.2689 -1.56906 -4.35176 255 0 0
25.0026 -3.47234 2.39714 255 0 0
23.2978 3.79558 -0.414512 255 0 0
17.4478 2.59698 -2.70718 255 0 0
20.5896 -2.64034 3.52637 255 0 0
0.116665 0.672752 1.80834 255 0 0
15.3089 4.33223 -4.95239 255 0 0
49.7189 -1.48163 0.575834 255 0 0
39.4959 -3.05151 0.151164 255 0 0
22.9707 -4.08893 -2.94319 255 0 0
29.8028 -2.53628 -4.83376 255 0 0
1.70829 -4.16545 3.6906 255 0 0
12.1701 4.4452 -0.793772 255 0 0
47.2629 -1.81971 1.11228 255 0 0
34.8793 4.66507 3.23227 255 0 0
12.813 4.55398 -3.22595 255 0 0
19.1118 -0.64812 -0.470758 255 0 0
31.4997 -4.57792 1.11069 255 0 0
44.3457 -2.01016 -1.00269 255 0 0
11.3831 2.25679 -1.4619 255 0 0
47.465 0.639298 -3.80626 255 0 0
32.1652 -1.5829 -1.79278 255 0 0
16.4287 -0.230965 1.20578 255 0 0
31.0527 -1.25641 -3.2205 255 0 0
27.7803 0.728914 -3.96811 255 0 0
40.4316 1.22801 0.251409 255 0 0
38.4821 -4.70644 2.55541 255 0 0
48.5713 -1.26833 -2.15522 255 0 0
32.8431 -3.97587 0.117098 255 0 0
47.6948 -2.67426 4.8422 255 0 0
0.327805 -1.81665 -0.940376 255 0 0
39.2031 3.84566 -0.535016 255 0 0
25.5144 -0.309855 -0.0715629 255 0 0
39.7009 0.103824 -1.28484 255 0 0
35.4306 -2.49897 3.13552 255 0 0
30.0267 -2.10934 2.30351 255 0 0
40.1913 -0.0130666 -3.67457 255 0 0
9.25132 -0.395653 4.49269 255 0 0
8.9862 -3.85456 2.60934 255 0 0
40.6167 1.18168 2.37177 255 0 0
49.4025 2.5343 4.96423 255 0 0
5.85611 -4.67704 -4.24381 255 0 0
25.6059 -3.83864 2.05796 255 0 0
32.6801 3.78848 -0.847348 255 0 0
38.1513 3.76418 -3.29514 255 0 0
38.6007 3.54722 -2.93905 255 0 0
44.0632 -1.9563 -4.63951 255 0 0
18.0498 -0.0257594 2.83067 255 0 0
18.0926 -4.3945 3.67513 255 0 0
43.057 -3.11892 -3.95751 255 0 0
41.5549 3.10017 3.66449 255 0 0
48.656 -1.73262 -1.82243 255 0 0
30.3308 3.20032 1.13571 255 0 0
41.0383 0.251777 -2.12315 255 0 0
6.19046 3.4078 3.41723 255 0 0
23.481 -1.81695 -2.4516 255 0 0
26.1282 -3.7801 -0.25528 255 0 0
36.2685 3.36371 -4.23435 255 0 0
19.3451 -0.29336 -3.63612 255 0 0
6.20887 -0.677319 -3.60893 255 0 0
34.9561 -2.36778 -2.66685 255 0 0
4.38762 -3.45874 -1.5724 255 0 0
0.709207 -2.12073 4.82682 255 0 0
32.04 4.62551 -4.87466 255 0 0
30.4787 -1.88893 -4.96106 255 0 0
9.25479 -1.02672 -1.32787 255 0 0
14.6374 -3.47649 -1.84703 255 0 0
33.3345 -0.23409 2.99639 255 0 0
48.0125 4.3291 -3.09638 255 0 0
45.9198 -0.850709 0.717375 255 0 0
32.9391 4.35787 3.23531 255 0 0
20.3117 0.65171 -2.19377 255 0 0
28.9833 1.74412 -4.67629 255 0 0
2.75778 2.83009 2.40188 255 0 0
43.4913 3.85429 -3.35995 255 0 0
15.1504 1.43454 4.49713 255 0 0
19.4107 1.94221 -1.87432 255 0 0
18.1892 1.00993 -0.335243 255 0 0
26.4204 1.10198 0.010687 255 0 0
12.0466 -3.35775 1.77363 255 0 0
4.15539 -3.66627 0.669138 255 0 0
35.2463 -3.34456 1.27994 255 0 0
22.1473 1.94155 3.9221 255 0 0
40.1705 -2.87625 -0.556996 255 0 0
25.8452 -2.16507 -4.51875 255 0 0
41.8384 -4.66916 4.34506 255 0 0
25.9343 -0.525158 2.53923 255 0 0
19.5088 0.890457 1.463 255 0 0
10.8475 -2.65393 4.49777 255 0 0
41.9008 -2.79293 2.79191 255 0 0
22.7865 3.3723 -2.54221 255 0 0
48.9845 3.6305 3.97248 255 0 0
45.7949 4.77315 4.23757 255 0 0
32.5238 0.101753 2.92177 255 0 0
21.7785 -1.79546 -2.38867 255 0 0
10.3389 -2.09071 -4.96985 255 0 0
36.5641 2.63684 -3.09122 255 0 0
32.3803 3.12203 4.73805 255 0 0
43.9351 1.38769 -0.732148 255 0 0
13.7705 0.868731 -3.74403 255 0 0
17.5011 0.737713 1.98909 255 0 0
19.6039 -4.46288 2.64641 255 0 0
30.7551 -0.493154 1.81948 255 0 0
16.4564 -1.34463 3.06392 255 0 0
18.3745 3.0863 -2.18576 255 0 0
19.5981 3.376 4.09813 255 0 0
34.5098 -4.48711 1.32718 255 0 0
26.4933 1.56924 0.171916 255 0 0
7.74783 1.35816 -4.46628 255 0 0
16.6783 -2.80706 3.19103 255 0 0
32.7532 2.88002 2.48204 255 0 0
33.2506 -4.72232 -3.52462 255 0 0
11.3769 -0.796298 -2.11856 255 0 0
18.4867 2.38247 3.78737 255 0 0
13.8306 3.40493 -1.97395 255 0 0
11.8479 -2.54774 -4.08778 255 0 0
24.7372 0.900951 4.16231 255 0 0
1.94279 -2.39137 3.22916 255 0 0
4.51309 4.94586 3.86452 255 0 0
49.904 3.1212 4.59243 255 0 0
33.4738 -1.44919 -4.58725 255 0 0
10.3806 -1.52961 4.61164 255 0 0
11.422 3.45792 -2.61021 255 0 0
3.62228 0.335044 -3.75665 255 0 0
10.3871 -3.83698 3.21487 255 0 0
7.57819 2.89305 -3.18104 255 0 0
15.6194 3.68842 2.18237 255 0 0
20.3447 -1.23827 0.653637 255 0 0
36.3524 -2.21625 1.7446 255 0 0
18.2716 -4.16062 2.26568 255 0 0
24.3416 -2.4663 -1.08603 255 0 0
22.0248 -4.21815 -3.80209 255 0 0
21.9919 -3.11146 -1.54854 255 0 0
39.2572 4.84815 4.2344 255 0 0
10.7256 4.85395 2.87946 255 0 0
4.28498 0.19457 2.02754 255 0 0
27.5505 3.45933 4.03076 255 0 0
12.1941 0.163644 2.29144 255 0 0
11.1473 1.77903 3.51521 255 0 0
1.93449 -1.91701 4.97898 255 0 0
10.6127 0.305399 -1.08969 255 0 0
13.5346 -1.77357 -0.392013 255 0 0
34.726 2.77887 1.98334 255 0 0
27.0651 4.32403 -0.0268338 255 0 0
47.3243 4.85754 1.0267 255 0 0
3.10528 2.48095 -2.2224 255 0 0
11.0277 2.04112 -3.51004 255 0 0
32.9203 -3.07699 -2.32908 255 0 0
43.9314 1.99999 0.153705 255 0 0
42.1022 1.30219 -3.23512 255 0 0
46.1169 4.47338 3.05285 255 0 0
44.8168 2.04488 -4.97564 255 0 0
23.006 -1.749 -4.37607 255 0 0
17.3057 2.78598 -1.50345 255 0 0
42.1045 -2.18456 0.374123 255 0 0
32.9474 4.7714 2.02066 255 0 0
25.1712 0.859531 4.40042 255 0 0
46.0718 1.29646 -2.88291 255 0 0
43.993 1.46786 -3.11429 255 0 0
32.1407 3.80146 -1.98836 255 0 0
31.0554 2.81556 -4.33286 255 0 0
1.21498 2.23513 4.44689 255 0 0
46.2103 -1.23483 -4.20411 255 0 0
13.7626 -3.90504 4.86824 255 0 0
11.8913 -0.836995 2.47397 255 0 0
20.4282 3.64016 0.752558 255 0 0
39.2513 4.80724 -3.08598 255 0 0
36.6366 2.2927 0.474679 255 0 0
5.53883 1.19296 -4.35595 255 0 0
40.9723 0.440159 4.50324 255 0 0
19.8044 3.95648 -1.63655 255 0 0
43.9742 4.34488 4.16707 255 0 0
49.2327 -3.06857 -3.56938 255 0 0
42.479 0.366638 -3.67851 255 0 0
30.9891 0.79066 -3.73294 255 0 0
34.923 4.69944 4.43074 255 0 0
4.9603 4.18726 3.21184 255 0 0
8.08817 -1.04583 -0.0612559 255 0 0
10.6544 3.22238 -0.528456 255 0 0
42.0583 -0.905884 4.02492 255 0 0
27.1285 -2.8372 -4.66493 255 0 0
27.1977 -0.475139 -4.27953 255 0 0
30.2866 -3.17131 -1.78583 255 0 0
49.0876 4.58919 2.97554 255 0 0
15.2077 -3.65224 0.752402 255 0 0
17.7734 2.31139 0.866116 255 0 0
32.4606 2.55054 0.129281 255 0 0
5.6185 -4.47268 -3.01849 255 0 0
3.31811 2.40781 0.0924429 255 0 0
15.5528 -4.95604 -2.77065 255 0 0
35.9382 0.439144 3.43915 255 0 0
9.75179 -0.81962 4.18682 255 0 0
17.9658 4.56049 1.61917 255 0 0
30.2437 1.12637 -2.52803 255 0 0
43.0426 -2.22825 0.997578 255 0 0
26.3748 -4.51831 4.47186 255 0 0
21.6881 3.4023 -2.78295 255 0 0
43.1129 -1.70406 -3.56047 255 0 0
28.3409 1.71976 4.9212 255 0 0
12.5722 4.05768 -1.79626 255 0 0
13.9157 2.57687 -3.51773 255 0 0
31.619 4.34285 -1.34535 255 0 0
32.6827 2.5115 2.10025 255 0 0
45.6197 -2.19825 0.336215 255 0 0
27.6233 3.51379 -3.99266 255 0 0
6.04986 -0.286405 1.26449 255 0 0
19.1281 2.73158 0.407351 255 0 0
4.8814 -1.91807 -1.57082 255 0 0
31.6357 1.69221 -0.478385 255 0 0
19.4325 0.919101 -0.371112 255 0 0
4.25819 -1.26282 4.30234 255 0 0
17.8009 2.43847 -3.3715 255 0 0
4.3077 -1.10838 2.23872 255 0 0
4.41111 -0.585126 2.59826 255 0 0
15.3212 -0.482877 1.6005 255 0 0
21.2989 -3.3361 -2.64983 255 0 0
48.2999 2.68806 0.661946 255 0 0
4.02697 -4.98525 0.50187 255 0 0
38.9317 4.98343 -2.95736 255 0 0
26.1328 -1.156 -2.49664 255 0 0
35.2246 4.27539 -0.859839 255 0 0
14.1879 2.34385 -2.52439 255 0 0
10.2222 -3.19483 -0.546929 255 0 0
9.32595 4.02108 4.84456 255 0 0
31.9652 -3.76319 3.51028 255 0 0
17.1079 3.64951 -0.606531 255 0 0
4.08206 3.34093 -1.23848 255 0 0
31.0006 -1.41962 -2.49052 255 0 0
11.7983 -0.603766 -2.15682 255 0 0
12.8357 -3.41219 -3.02447 255 0 0
29.3695 -0.748539 -2.56971 255 0 0
9.08239 2.59436 -4.32443 255 0 0
21.0123 -3.0413 -2.527 255 0 0
46.5207 1.63755 0.582782 255 0 0
26.244 -1.55892 -3.38862 255 0 0
13.8633 0.837381 0.273956 255 0 0
3.54681 -4.95241 3.61191 255 0 0
31.8072 -3.46955 3.5976 255 0 0
14.9126 1.31436 -0.0190155 255 0 0
28.6877 -3.00289 -4.06419 255 0 0
30.6271 -0.357267 3.37462 255 0 0
20.9948 0.166103 -0.896016 255 0 0
11.4162 4.52548 4.95382 255 0 0
49.1607 -2.79932 -1.17554 255 0 0
40.5927 -1.50615 -1.78415 255 0 0
34.6553 -3.17793 3.76847 255 0 0
23.1073 1.71085 0.141867 255 0 0
6.59871 -4.18285 3.29089 255 0 0
28.7581 0.264799 -0.501316 255 0 0
32.0722 -4.41708 2.25116 255 0 0
41.5982 -1.46354 -3.39624 255 0 0
24.524 -3.53624 2.94054 255 0 0
49.0551 2.52117 1.05047 255 0 0
13.4902 1.80619 -4.24508 255 0 0
16.7123 4.67084 -0.818555 255 0 0
10.0099 2.72583 0.412524 255 0 0
3.10778 0.598537 -3.15265 255 0 0
48.1286 -4.55029 0.284525 255 0 0
16.4648 2.99288 3.23668 255 0 0
49.5668 -2.0892 0.40924 255 0 0
24.7309 -3.3129 0.980292 255 0 0
48.3368 1.67889 0.577785 255 0 0
14.1814 0.47716 -2.0078 255 0 0
26.6265 -0.637771 3.72163 255 0 0
16.1275 -1.31888 3.32751 255 0 0
2.77639 3.5341 0.919116 255 0 0
20.6646 4.33422 3.08567 255 0 0
39.4033 -0.807004 -2.86158 255 0 0
23.0361 -1.51757 3.893 255 0 0
38.5406 -0.954315 0.615342 255 0 0
16.1042 -2.41656 -1.76963 255 0 0
16.9643 0.769709 4.58794 255 0 0
29.9835 1.86703 -3.33965 255 0 0
5.62085 -3.61025 -1.11868 255 0 0
43.0812 -4.6956 1.91538 255 0 0
37.0966 2.98819 2.70096 255 0 0
36.546 -0.791659 1.91766 255 0 0
12.5521 -0.538016 3.71853 255 0 0
0.238702 -1.25105 0.203671 255 0 0
28.6588 0.289655 4.17598 255 0 0
40.4173 -4.29425 -4.17792 255 0 0
21.5916 4.35437 -0.0265671 255 0 0
49.7636 -0.83577 -1.3101 255 0 0
30.5864 -1.10486 -4.34351 255 0 0
24.7616 -2.87864 0.475253 255 0 0
46.0112 4.34355 -4.29627 255 0 0
36.6991 -1.2013 4.76027 255 0 0
12.9201 -0.770078 1.8191 255 0 0
33.116 1.72996 2.47558 255 0 0
27.6435 -0.480261 -4.91899 255 0 0
38.6439 0.421404 3.50789 255 0 0
4.38901 4.42497 -4.31483 255 0 0
36.6282 -2.44198 -1.47436 255 0 0
25.598 2.43762 4.37068 255 0 0
35.0265 -3.13699 -1.70992 255 0 0
31.9825 2.96266 3.23283 255 0 0
48.3279 3.64448 -4.76798 255 0 0
36.5924 1.92326 -1.14711 255 0 0
28.6444 4.05377 1.92367 255 0 0
31.3205 -3.8672 4.09828 255 0 0
47.3745 3.01803 -3.026 255 0 0
7.6793 -0.548919 -4.4657 255 0 0
19.4402 0.583741 2.46202 255 0 0
12.3111 -2.79655 4.03541 255 0 0
26.6239 -4.83177 -4.93934 255 0 0
13.3214 0.714748 4.51356 255 0 0
9.18418 -4.3468 -2.14772 255 0 0
34.7748 -1.19244 3.46483 255 0 0
22.7056 -1.53328 -0.351234 255 0 0
26.7603 -0.962612 -1.89856 255 0 0
4.43126 2.39195 0.101954 255 0 0
33.5374 0.694239 4.10527 255 0 0
22.6311 -4.29672 -2.26974 255 0 0
5.62935 -1.49413 0.241999 255 0 0
0.07419 -4.58693 -1.41166 255 0 0
21.4963 3.09313 3.3841 255 0 0
22.2215 -2.05171 0.979243 255 0 0
21.7888 -0.105983 -2.29082 255 0 0
46.5416 1.2931 -3.14707 255 0 0
13.4075 0.475288 2.28035 255 0 0
16.9401 2.56107 2.44567 255 0 0
28.6908 -1.81984 2.52454 255 0 0
22.792 -2.34337 1.55268 255 0 0
8.13773 0.0422871 3.81023 255 0 0
46.5972 4.13627 -4.24022 255 0 0
41.67 -0.60265 3.44878 255 0 0
6.6672 -0.446864 1.63208 255 0 0
40.9162 0.709184 0.354441 255 0 0
35.4103 -0.968959 0.934474 255 0 0
1.86982 -4.78468 -3.06984 255 0 0
27.4927 -3.52299 -3.46099 255 0 0
44.3419 4.03664 -2.47992 255 0 0
29.4276 -2.16783 -3.64263 255 0 0
9.21311 -0.939333 -0.56111 255 0 0
14.1815 1.04377 -0.778003 255 0 0
43.348 -2.76483 3.2406 255 0 0
8.60892 -0.256907 4.81622 255 0 0
48.3644 -2.93763 0.538439 255 0 0
40.1548 -4.83024 -1.73393 255 0 0
42.9227 -1.68544 4.01958 255 0 0
0.237 0.334953 -2.86936 255 0 0
49.2021 0.873359 -4.77991 255 0 0
39.5536 0.195887 -4.82798 255 0 0
44.3907 -1.99387 0.00764427 255 0 0
19.7931 3.34764 -3.6031 255 0 0
5.91036 -1.87572 4.11115 255 0 0
9.73778 0.337175 4.34295 255 0 0
42.3114 1.66398 2.58055 255 0 0
17.8095 -4.77929 2.1142 255 0 0
49.9611 4.08474 -2.4514 255 0 0
19.751 1.86117 1.36486 255 0 0
28.2206 -0.524529 3.32995 255 0 0
2.05424 -0.901858 -0.497647 255 0 0
7.16237 -2.10192 4.40093 255 0 0
34.9095 4.80297 -2.15965 255 0 0
7.32182 3.62873 -2.00857 255 0 0
24.7493 4.25246 0.37284 255 0 0
1.19034 4.92189 4.04886 255 0 0
6.05968 4.77531 4.33623 255 0 0
9.09956 1.46085 -0.609373 255 0 0
6.81587 3.97918 3.24295 255 0 0
9.22738 0.0407457 -1.58279 255 0 0
32.6658 0.837153 -2.42785 255 0 0
39.1771 -3.15377 2.46281 255 0 0
9.88263 1.81252 -4.64904 255 0 0
22.3412 -1.39262 4.03483 255 0 0
27.9712 -0.274285 2.99571 255 0 0
45.9012 -2.61451 -0.639289 255 0 0
22.2082 4.99627 2.85607 255 0 0
35.8915 0.588592 3.37953 255 0 0
25.4359 -0.547202 -1.7652 255 0 0
27.0687 -3.31438 -0.229626 255 0 0
22.0554 4.61005 1.87867 255 0 0
30.523 4.62467 -1.56628 255 0 0
14.2907 1.99304 4.92675 255 0 0
20.6102 4.62271 1.6438 255 0 0
43.0936 0.0506654 -3.50191 255 0 0
26.0718 -1.02484 -1.58924 255 0 0
39.1892 2.30017 1.79088 255 0 0
5.92401 -0.277515 -4.53966 255 0 0
1.88708 -4.0265 1.84097 255 0 0
23.2257 2.22866 -0.0124649 255 0 0
48.5644 -3.25401 -0.847819 255 0 0
6.62821 -0.843513 -2.10025 255 0 0
29.9401 -3.6942 4.85756 255 0 0
44.1006 0.481239 1.56672 255 0 0
41.8281 2.048 -0.550327 255 0 0
34.0382 3.15894 -3.9746 255 0 0
30.9841 -3.91674 -0.573748 255 0 0
4.12663 -1.163 1.73303 255 0 0
46.4169 3.03992 2.49828 255 0 0
8.2254 2.66707 4.18453 255 0 0
32.7623 -4.4142 0.833938 255 0 0
25.4448 -4.60698 -3.19372 255 0 0
24.1456 1.60762 3.20431 255 0 0
27.9888 2.65275 -1.10397 255 0 0
27.4412 4.84629 -2.08504 255 0 0
43.775 1.40397 -4.82715 255 0 0
38.5588 -0.0485413 3.82066 255 0 0
41.2396 -0.361565 0.885531 255 0 0
42.0226 2.17879 4.12131 255 0 0
28.0332 0.026738 -0.802658 255 0 0
49.4037 -0.2726 -1.83217 255 0 0
2.60235 4.03101 -1.66647 255 0 0
43.2141 3.44804 -2.17927 255 0 0
41.6286 -2.43807 2.53801 255 0 0
33.0868 4.30886 4.15782 255 0 0
3.95727 -2.03269 -1.50445 255 0 0
4.6114 4.78333 4.70037 255 0 0
45.1972 4.99811 -4.05642 255 0 0
37.3231 -4.72858 4.65239 255 0 0
48.4811 -0.606162 -3.70413 255 0 0
34.6902 -3.36272 1.75142 255 0 0
15.2116 4.30578 -0.672687 255 0 0
35.0506 1.33546 0.480242 255 0 0
35.8542 1.89487 -1.38419 255 0 0
15.6929 -4.28297 -2.99665 255 0 0
7.83848 3.0225 1.23099 255 0 0
9.76589 1.98629 4.68394 255 0 0
5.81999 -0.540915 2.07776 255 0 0
20.9224 -0.707341 1.72879 255 0 0
41.6009 -2.36221 -1.31722 255 0 0
14.2801 4.56603 3.20982 255 0 0
49.1796 -2.17651 1.79682 255 0 0
36.0277 3.13831 4.95151 255 0 0
46.7181 -3.19216 -3.79007 255 0 0
32.9793 -1.81458 0.311343 255 0 0
35.046 4.69866 4.90022 255 0 0
0.371778 4.15527 -4.38666 255 0 0
27.077 -3.95991 4.24113 255 0 0
17.7056 -4.85441 -1.30583 255 0 0
25.9596 3.80186 -2.63639 255 0 0
21.3766 3.91552 2.47614 255 0 0
13.4177 0.740803 -2.04977 255 0 0
15.063 -0.990007 1.08709 255 0 0
37.4251 -1.14702 3.32932 255 0 0
15.131 3.16904 1.21023 255 0 0
11.8261 -2.51954 4.53381 255 0 0
10.05 3.32659 2.0206 255 0 0
12.8328 -1.96667 2.35718 255 0 0
4.51912 0.720319 -0.503054 255 0 0
45.5412 -0.181719 2.34638 255 0 0
0.85711 0.952376 2.97057 255 0 0
16.8028 -3.96788 -0.847498 255 0 0
25.8964 2.97148 -2.47741 255 0 0
35.7793 4.49788 -2.36005 255 0 0
37.8489 -0.43685 0.0310099 255 0 0
1.68373 4.48861 3.86436 255 0 0
16.8848 3.47799 3.04192 255 0 0
34.0792 -4.10701 -1.7562 255 0 0
34.9043 2.22239 3.92321 255 0 0
35.1387 4.19032 -3.90527 255 0 0
5.97986 0.557757 0.695348 255 0 0
12.3139 -1.12273 -2.01661 255 0 0
42.3765 -3.41897 -4.47095 255 0 0
38.4729 1.92309 -1.91723 255 0 0
21.5684 4.49865 -2.0895 255 0 0
23.6329 0.61823 -2.2227 255 0 0
18.1819 -3.33109 -0.042778 255 0 0
47.1992 -2.31238 1.67383 255 0 0
49.1189 -1.75561 4.60658 255 0 0
27.1281 1.94937 0.166889 255 0 0
39.4836 -4.65281 0.753635 255 0 0
31.513 -0.824904 -2.18066 255 0 0
34.8639 0.0916193 -1.69086 255 0 0
32.4595 -4.32081 0.717602 255 0 0
2.07071 -0.251428 -4.60717 255 0 0
47.0292 -1.88044 -2.77026 255 0 0
4.12571 0.100525 -2.59052 255 0 0
12.9009 3.8626 3.68878 255 0 0
31.4365 4.83857 1.76873 255 0 0
46.7288 1.22313 1.7285 255 0 0
5.43273 1.42719 4.33075 255 0 0
28.0539 4.07026 -1.99154 255 0 0
30.0222 -4.10629 4.52341 255 0 0
14.1289 -4.2345 3.73764 255 0 0
27.5869 -0.388439 2.2286 255 0 0
10.659 -2.86571 0.965183 255 0 0
30.1281 -1.21314 -3.18558 255 0 0
42.2891 -0.216602 2.69392 255 0 0
12.6465 2.58127 3.61105 255 0 0
21.9001 4.72571 1.42356 255 0 0
32.9625 1.21254 -3.4012 255 0 0
23.5248 -4.9537 -1.74265 255 0 0
38.9297 2.42847 -2.92851 255 0 0
14.5273 3.22565 2.42039 255 0 0
38.0279 3.65924 -2.87567 255 0 0
48.2634 1.35601 3.28476 255 0 0
42.412 0.378593 2.38716 255 0 0
27.9171 2.10136 -3.44048 255 0 0
18.7392 2.40473 2.7821 255 0 0
17.0392 -0.309823 -3.26728 255 0 0
39.8105 -3.98131 -0.803116 255 0 0
13.9904 0.722161 1.37672 255 0 0
28.6624 -2.61087 -2.61536 255 0 0
22.5479 1.40258 -2.61097 255 0 0
41.5641 -0.0886827 0.649074 255 0 0
39.489 0.0416108 4.36897 255 0 0
22.3987 0.835544 4.46054 255 0 0
48.2035 -2.05295 -4.04068 255 0 0
31.2979 -0.305636 -3.00693 255 0 0
47.1065 1.73835 2.03951 255 0 0
49.5656 4.98205 2.87309 255 0 0
22.9676 4.22359 4.47593 255 0 0
8.39972 3.87883 -4.97477 255 0 0
32.9774 -0.639179 4.63857 255 0 0
22.4399 3.3287 -4.2552 255 0 0
46.4919 2.48937 1.89719 255 0 0
0.917642 3.50534 1.81532 255 0 0
15.6166 2.59537 -1.57834 255 0 0
42.8184 2.268 -0.222901 255 0 0
9.41207 3.44567 4.05322 255 0 0
24.7739 2.63768 3.10136 255 0 0
7.35771 3.64618 -1.18915 255 0 0
38.8287 3.5109 2.27986 255 0 0
6.94274 -3.33545 -0.193572 255 0 0
48.6594 3.50874 4.32844 255 0 0
0.236579 4.45053 -2.8396 255 0 0
46.5508 4.81449 -1.79333 255 0 0
9.38869 1.06273 4.26663 255 0 0
31.5195 2.04383 -4.64656 255 0 0
43.8552 -0.291096 1.61545 255 0 0
10.6875 2.7889 2.2275 255 0 0
12.6243 1.12564 0.30313 255 0 0
48.313 -4.45841 -0.139225 255 0 0
4.94827 -1.79445 4.21798 255 0 0
1.90376 -4.66223 -4.72003 255 0 0
13.6428 -2.59467 2.57358 255 0 0
21.2707 3.60088 3.66442 255 0 0
15.706 -0.132888 4.80142 255 0 0
10.0142 -3.9168 -1.42626 255 0 0
35.1312 4.94508 1.05246 255 0 0
8.94715 3.72633 -2.53896 255 0 0
8.42332 0.697141 0.0830073 255 0 0
35.2488 -0.719821 -3.09567 255 0 0
21.2139 1.09636 -4.49594 255 0 0
23.9867 -4.72121 -4.54573 255 0 0
49.3623 -2.21768 -4.88819 255 0 0
26.7537 -2.03507 -0.437922 255 0 0
15.2811 3.66242 -2.30838 255 0 0
37.8816 1.33943 -0.801882 255 0 0
31.5371 -1.21878 3.00649 255 0 0
8.24733 2.56916 0.684889 255 0 0
25.5069 -4.16264 -0.879821 255 0 0
9.67117 0.00640282 4.26899 255 0 0
6.97108 -1.21231 -1.19862 255 0 0
2.0882 -0.901061 3.4535 255 0 0
6.8291 4.49986 0.555126 255 0 0
12.4173 -4.60704 2.63715 255 0 0
33.021 0.676803 -4.2722 255 0 0
40.377 3.28211 3.45417 255 0 0
9.83523 0.571814 2.28206 255 0 0
9.81809 -2.93329 -4.82998 255 0 0
5.18917 4.11653 2.00258 255 0 0
44.3112 -3.78387 2.8823 255 0 0
31.5068 3.45935 -3.30188 255 0 0
31.5148 1.42377 -3.47362 255 0 0
38.9878 -1.93696 -3.16946 255 0 0
28.9595 -0.908584 -3.08512 255 0 0
15.7144 0.688524 1.85681 255 0 0
24.1392 -2.78235 1.32994 255 0 0
38.7206 2.58079 4.75834 255 0 0
46.2857 0.708076 2.93807 255 0 0
16.5726 -1.12374 -0.564215 255 0 0
36.5323 -0.640622 -1.70088 255 0 0
1.76933 0.533749 -1.99242 255 0 0
47.0499 1.09301 -2.5745 255 0 0
25.5587 -0.224252 0.183922 255 0 0
14.6601 -0.326138 2.58657 255 0 0
39.6506 -4.57027 -2.18943 255 0 0
45.2334 3.1971 -2.98483 255 0 0
41.3471 3.45694 -1.76337 255 0 0
40.6075 4.17692 -2.27875 255 0 0
24.148 -4.33201 -2.30745 255 0 0
41.552 4.89405 3.70791 255 0 0
14.1365 2.79034 -0.0997629 255 0 0
29.379 -0.732882 -1.2938 255 0 0
45.3922 1.90881 4.45103 255 0 0
1.22442 -1.93321 2.14709 255 0 0
47.354 2.27027 1.95539 255 0 0
39.4826 -0.50952 3.85482 255 0 0
18.9041 -1.83301 -2.08635 255 0 0
6.19632 -2.8654 -3.10374 255 0 0
23.8647 3.33523 -4.08886 255 0 0
3.49494 1.63736 4.06692 255 0 0
20.3345 3.58947 -1.98917 255 0 0
28.6628 4.68288 0.596277 255 0 0
21.0697 3.18032 3.8535 255 0 0
21.159 0.45897 -2.35486 255 0 0
37.5429 -2.35869 -2.80092 255 0 0
31.8645 2.96108 -2.44854 255 0 0
24.2692 3.45855 0.38623 255 0 0
14.5124 4.25067 -0.177355 255 0 0
10.4837 -4.68795 -1.37722 255 0 0
3.11469 -2.73029 4.61967 255 0 0
2.3358 -4.77826 -3.29719 255 0 0
4.60346 2.57814 -2.32887 255 0 0
17.0214 -3.24538 0.532007 255 0 0
34.2694 -2.80413 2.80232 255 0 0
5.93062 4.07423 -3.0982 255 0 0
20.8906 -4.64201 2.67282 255 0 0
1.44624 2.35056 2.33073 255 0 0
26.6243 0.54578 -3.81204 255 0 0
26.3786 2.71461 2.91999 255 0 0
49.1925 2.69785 -0.95397 255 0 0
44.2317 -1.21215 -3.5888 255 0 0
5.08377 -1.95116 -3.35934 255 0 0
24.8388 -1.26044 0.301921 255 0 0
10.1329 -2.67319 -1.70416 255 0 0
8.70238 0.354271 -3.60139 255 0 0
23.7363 -2.54016 -2.27969 255 0 0
0.116216 -2.38991 -3.21084 255 0 0
44.6058 -3.34427 3.27345 255 0 0
27.3512 2.61009 -0.991217 255 0 0
14.4006 -4.63743 1.51562 255 0 0
17.7552 3.92818 -0.57321 255 0 0
35.2961 1.42035 1.28092 255 0 0
6.18134 -2.6905 1.52322 255 0 0
39.7401 0.0765364 -0.815576 255 0 0
17.8337 -2.48062 -0.337339 255 0 0
36.7218 1.12644 -3.88956 255 0 0
2.96866 -4.48807 4.56879 255 0 0
27.0483 2.80729 1.26985 255 0 0
28.1522 -1.69349 -0.865611 255 0 0
0.945934 -0.848401 -3.13406 255 0 0
35.1476 -1.2381 3.04336 255 0 0
33.9697 -0.569005 -0.372441 255 0 0
3.25301 3.45003 -1.91787 255 0 0
28.2108 2.13437 -2.53597 255 0 0
12.7109 -4.21239 -3.25493 255 0 0
14.2252 -4.68187 -2.58879 255 0 0
25.6805 -2.44737 2.3922 255 0 0
16.1538 4.61547 4.22151 255 0 0
10.3595 3.55372 -1.41524 255 0 0
19.7511 -3.21377 -1.24328 255 0 0
9.56303 -1.43098 -3.74899 255 0 0
19.6331 -3.76001 3.6145 255 0 0
0.972575 -0.243834 1.08217 255 0 0
41.3673 2.54626 -3.75385 255 0 0
45.5457 0.605536 2.97785 255 0 0
34.8377 -0.871486 -1.68023 255 0 0
5.1084 1.53457 3.96176 255 0 0
25.3052 4.52786 1.31435 255 0 0
21.5519 4.59244 4.75783 255 0 0
40.993 0.333494 3.78624 255 0 0
8.59255 -4.52351 -4.19421 255 0 0
44.3239 -3.20911 -1.39495 255 0 0
38.6722 0.44733 -2.0887 255 0 0
10.2945 2.54311 -1.24406 255 0 0
45.4008 2.13209 3.39113 255 0 0
33.0406 -0.232201 -2.15288 255 0 0
7.40659 0.57144 -4.36916 255 0 0
42.1167 -0.938379 -1.86787 255 0 0
8.9786 3.47264 1.29076 255 0 0
12.5012 -2.13808 -2.6343 255 0 0
21.3874 -1.79754 -0.652483 255 0 0
19.0377 -0.0201425 2.82767 255 0 0
41.3779 3.6519 4.87856 255 0 0
2.68683 0.0475297 -4.12404 255 0 0
25.4385 2.16198 -4.89058 255 0 0
5.10336 -3.39365 4.02233 255 0 0
32.3511 -0.00702484 -3.75018 255 0 0
35.8053 -3.1537 -3.0053 255 0 0
25.7298 1.08719 -2.07344 255 0 0
1.28866 -4.357 1.88701 255 0 0
21.0522 -0.0729434 0.806458 255 0 0
45.194 2.06266 3.0854 255 0 0
48.0349 1.50472 4.60994 255 0 0
34.5796 -4.70714 -4.0146 255 0 0
1.15128 4.70486 -4.1833 255 0 0
43.0907 2.35755 4.60729 255 0 0
47.1414 2.49417 -2.78408 255 0 0
17.2275 -1.54949 2.91534 255 0 0
13.2523 0.598359 -1.86014 255 0 0
35.7823 3.66707 -3.93334 255 0 0
39.3898 -1.19864 -4.77833 255 0 0
29.938 -4.51422 4.90609 255 0 0
43.0597 -0.362946 -2.90601 255 0 0
37.0192 1.95843 -0.616286 255 0 0
35.6591 4.94488 -1.82422 255 0 0
37.6257 0.623555 -2.46324 255 0 0
19.0757 -0.093346 -0.219712 255 0 0
49.8343 -0.675266 -3.09299 255 0 0
47.4144 -0.983055 -3.72948 255 0 0
3.9293 -4.29109 4.08599 255 0 0
24.7833 1.48183 4.8157 255 0 0
23.1933 3.08331 -2.76241 255 0 0
41.9002 3.24992 0.680497 255 0 0
6.7769 1.46652 -0.913586 255 0 0
10.158 1.60531 -4.7384 255 0 0
21.1272 -3.53053 -2.55541 255 0 0
15.47 -0.726822 -0.238673 255 0 0
5.77625 -0.44561 3.73195 255 0 0
12.0784 4.97392 3.82325 255 0 0
40.509 -0.0661212 0.255766 255 0 0
4.2489 -4.62757 1.61627 255 0 0
43.2371 0.102773 -2.35664 255 0 0
40.963 4.1879 -4.72108 255 0 0
27.0739 -1.76219 2.09979 255 0 0
34.1798 -4.62303 -0.125872 255 0 0
36.4859 -4.94138 -1.49296 255 0 0
43.0099 -0.787035 4.55509 255 0 0
9.92603 0.0842271 2.00061 255 0 0
46.462 3.81014 3.28484 255 0 0
3.28626 -4.50891 -4.20102 255 0 0
8.94932 -0.861185 -4.89877 255 0 0
41.1315 3.60536 2.31852 255 0 0
35.1293 4.49764 3.66985 255 0 0
27.4018 4.45166 2.58288 255 0 0
13.9851 -0.196744 -0.693158 255 0 0
19.2017 -0.85655 2.36738 255 0 0
19.5293 -2.98886 1.49835 255 0 0
19.2846 -3.83162 0.874857 255 0 0
2.24275 4.67202 -4.5536 255 0 0
44.908 4.60317 -4.59866 255 0 0
1.52077 4.68051 -0.617064 255 0 0
36.8056 -4.45414 -4.69241 255 0 0
43.7433 -1.9043 -2.73208 255 0 0
38.989 -3.64936 -2.03937 255 0 0
45.0378 1.2662 -2.95528 255 0 0
3.72975 0.623005 -1.56867 255 0 0
16.288 2.01917 -2.43299 255 0 0
33.0716 2.22033 -3.96439 255 0 0
30.3245 4.84372 4.72982 255 0 0
16.6145 -2.11413 1.33977 255 0 0
36.2215 0.74358 -1.68804 255 0 0
2.84438 4.18959 4.4332 255 0 0
30.7967 3.55112 1.08512 255 0 0
5.41107 4.50813 3.43212 255 0 0
16.0476 -0.159675 4.77622 255 0 0
35.225 2.11493 4.87383 255 0 0
23.8355 0.150366 2.81599 255 0 0
11.367 -4.17855 4.7433 255 0 0
5.44421 -2.13106 2.79122 255 0 0
38.5001 1.0136 -4.68733 255 0 0
1.22477 1.60594 -3.38121 255 0 0
32.2369 -4.33327 -1.47952 255 0 0
49.5373 4.94303 1.56729 255 0 0
23.061 -1.23588 0.564317 255 0 0
3.31796 4.54505 1.96304 255 0 0
3.60489 0.396848 3.02673 255 0 0
13.3427 -3.78122 3.70659 255 0 0
46.8541 -0.876725 -4.71669 255 0 0
38.9416 -0.527021 -0.208858 255 0 0
20.3167 4.08624 4.46094 255 0 0
37.0053 4.50287 -3.23824 255 0 0
29.4783 2.17782 -3.89449 255 0 0
1.17522 -0.215447 -4.42413 255 0 0
42.06 4.82419 0.0212383 255 0 0
17.1588 1.03021 0.541363 255 0 0
39.5623 3.79387 -4.90351 255 0 0
31.3431 4.78089 -2.98737 255 0 0
17.3682 -1.9967 -1.33601 255 0 0
3.7208 1.12263 4.06477 255 0 0
42.0143 1.37589 -2.26872 255 0 0
10.6847 3.10427 -1.84302 255 0 0
3.52088 -3.27085 2.90635 255 0 0
43.7994 -1.30834 1.10423 255 0 0
0.348578 2.0002 -4.19961 255 0 0
0.678791 -0.0274023 4.15397 255 0 0
3.79885 1.49027 -3.08126 255 0 0
37.1915 4.83386 0.365011 255 0 0
14.4893 0.96266 4.88461 255 0 0
16.4229 3.00915 -0.613882 255 0 0
21.4948 -4.68706 -2.92873 255 0 0
40.9198 -2.31319 1.39039 255 0 0
8.36519 3.70269 -3.06555 255 0 0
7.6833 3.55368 4.05259 255 0 0
32.978 3.2375 2.76103 255 0 0
10.6767 3.94036 -1.17923 255 0 0
12.8617 -3.97982 -2.45482 255 0 0
47.4448 1.41135 2.10217 255 0 0
24.3699 3.59724 2.21192 255 0 0
48.725 4.77906 -0.490158 255 0 0
36.7846 -4.06286 4.41175 255 0 0
31.821 -2.80761 -2.47227 255 0 0
41.3765 -3.24098 -3.44091 255 0 0
2.87917 0.0128075 3.66467 255 0 0
12.4964 -0.259795 0.775216 255 0 0
15.9993 -0.140717 0.130413 255 0 0
29.198 -2.40367 -3.33769 255 0 0
14.9308 3.03821 -0.41698 255 0 0
30.9749 3.05176 1.86757 255 0 0
34.0066 -1.08997 3.24694 255 0 0
34.3997 -3.58961 -1.69406 255 0 0
32.1026 -3.77121 -2.89204 255 0 0
5.80576 -1.63655 1.70877 255 0 0
20.2484 -2.03341 1.3698 255 0 0
37.8966 -4.73245 3.47702 255 0 0
32.0511 -4.79511 -3.42811 255 0 0
35.9823 1.29414 0.193038 255 0 0
13.9117 2.93983 -4.90987 255 0 0
19.4797 0.600208 -3.34791 255 0 0
45.5007 -2.75834 1.25951 255 0 0
1.96723 2.73687 1.21005 255 0 0
10.7179 0.429639 -4.71159 255 0 0
34.5547 -4.46662 -3.82949 255 0 0
37.0179 4.71583 1.07532 255 0 0
49.2361 2.36516 -2.92842 255 0 0
37.4397 3.7797 -2.54872 255 0 0
47.6884 -4.0874 1.58862 255 0 0
14.6952 2.5489 1.26489 255 0 0
47.4417 2.66742 -1.79695 255 0 0
35.9294 -0.330637 3.55296 255 0 0
31.5285 -1.85262 3.95676 255 0 0
39.6196 -1.42823 4.73951 255 0 0
15.6728 -1.68562 -4.42829 255 0 0
32.8812 -1.25782 -4.43736 255 0 0
2.62832 3.49747 -1.52852 255 0 0
23.6092 -2.62854 2.85806 255 0 0
27.9445 -2.2622 -2.44039 255 0 0
22.8297 -4.41002 -0.400953 255 0 0
22.5532 2.22889 1.64375 255 0 0
16.1672 4.25305 -1.97208 255 0 0
8.94331 3.4623 -2.58532 255 0 0
39.38 -3.09815 0.669237 255 0 0
1.81969 -4.36367 -2.61851 255 0 0
0.440483 -2.96372 -2.3272 255 0 0
31.248 4.47367 1.07285 255 0 0
27.022 -1.66486 -0.315137 255 0 0
48.8885 3.3349 -4.07168 255 0 0
28.966 -0.282597 2.73141 255 0 0
22.7857 -2.4399 -2.74441 255 0 0
40.882 4.52565 -4.21292 255 0 0
1.03968 3.55046 1.83621 255 0 0
28.0393 0.568289 -0.295459 255 0 0
38.0107 1.77221 -1.67026 255 0 0
34.2815 -3.78389 -4.19315 255 0 0
27.979 4.66587 4.87584 255 0 0
40.8301 0.294466 -4.44323 255 0 0
25.1895 -2.54666 -3.02932 255 0 0
13.1634 -4.2723 1.01994 255 0 0
4.02926 -0.418114 2.31059 255 0 0
6.78865 0.842756 -2.52803 255 0 0
10.3626 -4.00052 -4.23386 255 0 0
11.8182 -1.32396 -4.46161 255 0 0
5.87059 0.940269 0.273059 255 0 0
11.3002 0.751912 1.82812 255 0 0
39.1947 -3.93617 2.52816 255 0 0
48.9097 1.40603 -1.09117 255 0 0
5.46704 -2.79204 -3.48694 255 0 0
14.3207 0.285727 -4.13598 255 0 0
19.6626 -3.2275 1.00423 255 0 0
45.6466 0.954928 0.842445 255 0 0
32.0632 0.423373 3.06598 255 0 0
41.3426 0.274233 2.12192 255 0 0
19.7069 -3.91802 1.47325 255 0 0
1.99953 -3.18846 -4.70612 255 0 0
30.8125 -2.64459 1.31543 255 0 0
9.46523 -2.14896 -4.01415 255 0 0
19.9042 1.31976 -0.972626 255 0 0
11.2011 -3.71989 2.09338 255 0 0
30.8111 -2.40236 0.474089 255 0 0
31.5598 1.64901 -3.12763 255 0 0
16.964 -0.94904 1.13126 255 0 0
7.6623 4.55905 -4.91146 255 0 0
14.6999 -1.35282 -4.20057 255 0 0
20.354 3.7017 1.44028 255 0 0
9.25427 3.8652 2.48672 255 0 0
16.2815 -2.69981 -0.84001 255 0 0
4.00785 2.94839 -0.68079 255 0 0
42.8703 -3.17884 4.9737 255 0 0
2.73576 0.741835 0.897291 255 0 0
27.8549 1.82995 0.18872 255 0 0
24.7947 3.02382 -3.54208 255 0 0
21.716 -2.12829 -2.35342 255 0 0
43.4488 1.94209 -3.23187 255 0 0
15.8466 4.34914 -1.03161 255 0 0
41.2281 -4.74059 -1.47868 255 0 0
47.121 -3.99771 2.63483 255 0 0
0.40158 4.33138 3.30127 255 0 0
1.57855 0.583581 0.613144 255 0 0
27.5447 -1.00298 -3.34591 255 0 0
43.77 0.948968 0.657493 255 0 0
4.75052 3.67014 1.02214 255 0 0
29.1194 2.57922 1.53778 255 0 0
33.2816 -4.69892 0.796627 255 0 0
37.2883 3.69409 -4.80891 255 0 0
21.073 -4.90672 3.30707 255 0 0
48.9279 -1.08405 -2.49898 255 0 0
14.2835 -4.40635 3.44702 255 0 0
25.8044 -1.90481 2.41996 255 0 0
15.0472 -1.8566 -4.72937 255 0 0
16.7987 2.59194 4.69514 255 0 0
11.7451 -2.39425 -2.57231 255 0 0
44.6227 -4.68435 1.72873 255 0 0
0.90983 -0.261271 1.47391 255 0 0
9.95145 -3.58121 -1.74814 255 0 0
20.1379 2.32314 1.56863 255 0 0
38.2819 -3.36631 3.20926 255 0 0
2.95283 -0.518928 0.234652 255 0 0
2.00303 2.86669 1.39702 255 0 0
42.4965 3.61353 -1.56083 255 0 0
18.6387 -2.1286 -0.591268 255 0 0
36.4717 4.99238 -3.4094 255 0 0
7.90358 3.10051 -1.10143 255 0 0
46.5234 2.40731 -3.40585 255 0 0
44.6548 -3.65121 -1.69037 255 0 0
26.551 2.81332 3.70829 255 0 0
9.48279 -3.76915 -0.419926 255 0 0
31.5435 -0.292913 -3.44489 255 0 0
22.8555 1.55939 -3.78734 255 0 0
17.2674 1.22141 0.0140355 255 0 0
26.0679 3.1786 -0.756375 255 0 0
0.508817 4.55284 -0.841988 255 0 0
31.8265 1.18246 -0.611989 255 0 0
0.574637 4.7346 3.10753 255 0 0
46.9825 -0.455243 2.22175 255 0 0
15.3287 2.09397 2.67583 255 0 0
28.9797 -0.645021 -4.13095 255 0 0
6.93799 -1.26063 3.03546 255 0 0
5.84172 -1.72511 -4.31172 255 0 0
43.7481 0.818304 0.105257 255 0 0
47.888 0.548328 0.705944 255 0 0
45.7701 -1.23031 -2.6669 255 0 0
34.8453 -2.29701 -4.97538 255 0 0
18.8307 3.24672 0.840409 255 0 0
13.8211 -3.30193 -0.701278 255 0 0
37.4707 0.562504 1.3762 255 0 0
30.5521 -2.42445 -3.37764 255 0 0
17.3986 3.86263 3.87782 255 0 0
7.48977 2.56151 2.83924 255 0 0
