ply
format ascii 1.0
comment Created by Open3D
element vertex 1443
property double x
property double y
property double z
property uchar red
property uchar green
property uchar blue
end_header
-3.51655 3.25998 96.444 0 255 0
-2.81569 -1.55733 100.069 0 255 0
0.632524 -3.97456 95.6489 0 255 0
0.0467646 -4.51023 96.0035 0 255 0
4.65984 2.42636 101.171 0 255 0
0.0734676 -3.48742 97.9078 0 255 0
-0.583166 -0.0453832 96.4339 0 255 0
-3.44135 -0.509263 102.55 0 255 0
-0.405749 0.488869 102.614 0 255 0
4.74614 -1.35629 95.6183 0 255 0
-1.20063 -2.54093 95.863 0 255 0
1.31464 -4.84802 100.491 0 255 0
0.884302 -1.58526 96.6792 0 255 0
-0.86139 -2.64488 104.603 0 255 0
-0.654564 3.31233 100.639 0 255 0
2.6321 4.66372 101.104 0 255 0
-2.11563 -2.76638 98.7724 0 255 0
0.692981 -1.64482 101.344 0 255 0
-4.06612 -2.26731 95.2318 0 255 0
3.20232 -0.0290298 95.8881 0 255 0
-0.176826 -1.11211 99.0739 0 255 0
-4.22539 -4.78192 95.1719 0 255 0
-3.98781 -0.220937 95.9159 0 255 0
2.4523 0.0926537 96.4734 0 255 0
2.32541 -4.58665 101.96 0 255 0
-2.44732 -4.31532 96.6235 0 255 0
-1.01118 -4.87839 96.3887 0 255 0
-3.20079 -2.2201 99.695 0 255 0
-4.66001 3.87034 101.197 0 255 0
-2.408 1.4136 98.4999 0 255 0
0.517765 3.28515 96.1544 0 255 0
3.36023 -4.6231 104.54 0 255 0
3.62037 -4.78383 99.9866 0 255 0
-0.977688 -4.01746 97.9049 0 255 0
-2.03802 -1.33198 96.0652 0 255 0
-0.114678 -1.61717 100.929 0 255 0
-2.40219 -1.4454 95.5412 0 255 0
0.527536 4.99026 102.284 0 255 0
1.64948 1.39672 95.1449 0 255 0
4.06068 -4.62687 100.477 0 255 0
2.19897 -2.89211 100.205 0 255 0
3.66402 2.36826 97.981 0 255 0
-0.582419 2.4111 97.2095 0 255 0
3.31525 3.33042 95.0067 0 255 0
4.86494 -4.89967 96.7266 0 255 0
-3.89513 -3.97455 101.972 0 255 0
2.70609 2.18785 99.0484 0 255 0
-3.51262 1.88049 99.5396 0 255 0
-1.80016 3.77172 101.194 0 255 0
3.36 3.22152 97.9206 0 255 0
-0.786648 -0.884242 103.673 0 255 0
-2.5104 1.66882 97.3249 0 255 0
1.97985 -0.551505 99.2192 0 255 0
2.51259 2.2928 98.3456 0 255 0
3.05296 -1.80767 102.957 0 255 0
-1.90653 3.44266 104.332 0 255 0
1.99439 0.650086 96.0142 0 255 0
-1.2797 4.09141 100.491 0 255 0
4.2316 4.4769 95.5486 0 255 0
-3.17195 1.85407 102.686 0 255 0
-2.04477 -0.194996 96.5015 0 255 0
2.0132 3.31181 104.89 0 255 0
-1.56879 -4.09144 101.194 0 255 0
-2.1432 1.80659 100.41 0 255 0
-0.218036 3.85058 98.1594 0 255 0
-4.64835 3.85233 98.1575 0 255 0
-3.06099 -1.15186 104.762 0 255 0
4.47617 -4.48486 103.525 0 255 0
3.50838 2.29272 101.569 0 255 0
4.88583 -0.624582 103.092 0 255 0
3.67855 2.24851 97.2018 0 255 0
4.44778 -1.80007 96.3827 0 255 0
-3.29666 -4.03257 104.959 0 255 0
4.48627 0.525599 103.231 0 255 0
4.39149 -2.07389 96.8913 0 255 0
-0.651024 -4.17491 101.506 0 255 0
-2.62433 4.47882 99.9667 0 255 0
-2.14132 -1.90959 97.1901 0 255 0
-3.19669 -1.4093 98.3374 0 255 0
-4.71073 -2.49779 98.6522 0 255 0
1.73944 4.5329 104.056 0 255 0
-2.50961 1.42579 98.2939 0 255 0
-4.92736 -0.206623 99.6962 0 255 0
-1.3748 1.7692 100.609 0 255 0
0.936721 -0.67488 98.2757 0 255 0
-0.84478 2.91108 99.0616 0 255 0
-1.45099 3.05481 103.737 0 255 0
1.20411 -2.52656 102.464 0 255 0
2.56413 -3.24168 103.75 0 255 0
-3.35411 3.18112 98.2508 0 255 0
-0.562999 1.56905 101.444 0 255 0
0.682819 3.7365 95.0911 0 255 0
0.387685 0.295204 103.155 0 255 0
-2.38238 -0.720477 103.047 0 255 0
1.3313 2.85007 102.625 0 255 0
3.37956 3.4442 96.8659 0 255 0
4.07503 0.7723 98.6692 0 255 0
-4.70786 -0.183255 97.0027 0 255 0
1.7313 4.37001 104.909 0 255 0
-1.45032 -0.693683 100.573 0 255 0
-2.82183 -1.19386 98.6031 0 255 0
3.4046 1.63587 103.873 0 255 0
-0.498289 -3.65948 97.3264 0 255 0
4.72028 -4.34195 98.6746 0 255 0
-4.03806 0.568162 100.326 0 255 0
3.13056 4.998 95.4744 0 255 0
-3.00177 0.327337 102.189 0 255 0
0.966208 -0.455981 96.7518 0 255 0
1.83667 -4.73392 95.7676 0 255 0
2.11765 4.25154 99.8701 0 255 0
3.47561 -4.95995 95.7837 0 255 0
2.96803 4.03025 98.224 0 255 0
2.24277 0.181501 96.5333 0 255 0
-3.5869 0.708152 98.6383 0 255 0
-3.40767 -2.11697 102.939 0 255 0
3.67245 0.0925386 102.497 0 255 0
2.73473 1.78977 103.48 0 255 0
-4.70651 -0.563269 99.8967 0 255 0
-1.21655 -4.62285 96.2359 0 255 0
0.708384 4.46861 98.5965 0 255 0
-0.215429 -1.66742 97.1696 0 255 0
-4.19247 3.59679 104.705 0 255 0
2.55283 -4.66879 104.654 0 255 0
-4.27025 0.736127 104.048 0 255 0
-0.953914 -0.599584 98.7132 0 255 0
0.882415 4.18203 100.592 0 255 0
4.73412 -4.34858 101.014 0 255 0
-0.602838 2.254 104.017 0 255 0
-1.55832 -4.38788 97.9849 0 255 0
-4.8534 0.798079 95.4093 0 255 0
0.0101764 -0.0106943 102.337 0 255 0
-1.90942 0.384853 103.721 0 255 0
3.955 3.99945 97.086 0 255 0
1.22602 -1.7714 98.575 0 255 0
-2.97658 -1.9936 100.287 0 255 0
-4.53478 1.57156 96.7696 0 255 0
3.9451 -4.02015 100.617 0 255 0
1.85767 1.9304 100.126 0 255 0
-1.54448 4.02353 102.368 0 255 0
3.20703 -3.33235 95.0025 0 255 0
-1.32489 3.34186 95.7037 0 255 0
4.51761 -4.91635 104.325 0 255 0
-0.761845 3.77241 103.221 0 255 0
3.53481 -2.27888 100.818 0 255 0
-1.88843 -4.33832 96.5245 0 255 0
-1.72656 3.37716 99.6654 0 255 0
-2.67801 -0.0841024 102.206 0 255 0
-2.96453 -1.3704 102.025 0 255 0
4.72385 4.97983 95.1467 0 255 0
3.50861 -0.566884 99.303 0 255 0
4.53846 1.03377 104.453 0 255 0
-0.376509 -0.684938 102.185 0 255 0
1.73085 -1.81568 98.0031 0 255 0
1.08825 -2.50653 97.6916 0 255 0
-2.09306 -3.38291 104.514 0 255 0
1.39582 0.77704 101.578 0 255 0
-3.06028 -4.84231 103.471 0 255 0
2.97313 -3.70318 98.9488 0 255 0
3.11153 -1.58814 103.031 0 255 0
1.9395 0.713019 103.654 0 255 0
0.311485 -3.25197 97.5403 0 255 0
3.6053 -4.29019 104.691 0 255 0
4.99551 0.565697 95.9216 0 255 0
-1.33216 -2.22516 101.311 0 255 0
0.0121353 -1.71684 104.047 0 255 0
4.43 -0.765509 99.9635 0 255 0
4.49125 2.73522 101.212 0 255 0
2.00456 -1.10551 102.848 0 255 0
-0.678047 -0.298687 100.413 0 255 0
4.69418 1.40227 100.752 0 255 0
-1.90478 3.34905 102.095 0 255 0
2.49986 4.25591 95.267 0 255 0
-3.30859 -3.84872 96.6561 0 255 0
0.459108 -2.38922 98.8401 0 255 0
-2.19247 -0.634339 98.6723 0 255 0
-1.69047 2.18743 104.171 0 255 0
1.96006 -1.15269 96.3747 0 255 0
0.686566 3.6614 97.3285 0 255 0
-3.87599 2.19525 100.432 0 255 0
2.21834 0.142311 102.609 0 255 0
-4.69285 4.53282 101.001 0 255 0
3.06339 2.57863 97.1227 0 255 0
-4.07342 4.71921 103.601 0 255 0
4.97146 3.82286 99.4247 0 255 0
1.38932 -0.695798 102.923 0 255 0
2.18131 -2.57198 99.2139 0 255 0
4.81593 2.33725 98.0232 0 255 0
4.1488 1.76377 104.923 0 255 0
-1.34842 -3.58056 103.854 0 255 0
0.493436 3.7638 104.055 0 255 0
-2.13961 2.52711 102.153 0 255 0
0.452997 0.579038 103.765 0 255 0
0.986703 2.5495 100.646 0 255 0
3.91141 -3.56024 97.3593 0 255 0
-4.43194 1.59978 103.601 0 255 0
0.171618 -2.07371 103.306 0 255 0
3.59659 0.28646 97.7859 0 255 0
-4.18084 3.88411 95.7938 0 255 0
-2.27594 2.52841 98.7258 0 255 0
-3.62941 -3.47361 98.0722 0 255 0
-0.657125 2.70245 100.602 0 255 0
3.20752 -2.08831 102.645 0 255 0
-3.08911 2.43375 97.027 0 255 0
-0.50267 0.92498 98.5567 0 255 0
-0.40705 -1.94058 98.0353 0 255 0
2.65084 -3.18216 100.965 0 255 0
1.76262 -2.14507 96.0244 0 255 0
3.6591 2.48796 100.25 0 255 0
-2.1112 2.20314 104.557 0 255 0
-3.19346 4.47738 98.5791 0 255 0
3.49505 -1.44496 99.5937 0 255 0
0.502086 3.49752 100.919 0 255 0
2.56315 -0.135949 95.5044 0 255 0
-2.3743 -4.57284 95.7751 0 255 0
-2.00186 2.41006 95.0945 0 255 0
-4.2006 0.983776 98.2451 0 255 0
-3.32138 2.01333 99.1915 0 255 0
-4.41048 -0.909793 99.1571 0 255 0
0.576054 0.28305 102.349 0 255 0
4.71644 -1.07503 96.8328 0 255 0
-2.43346 0.217314 103.684 0 255 0
3.42403 0.459822 104.967 0 255 0
4.21205 -4.05853 102.893 0 255 0
-2.36158 3.24507 99.6124 0 255 0
3.92502 3.78312 104.435 0 255 0
3.61829 -4.40946 100.945 0 255 0
-0.811273 -4.56446 101.104 0 255 0
1.65667 1.45914 99.6796 0 255 0
0.057452 3.32112 101.5 0 255 0
0.419396 0.35571 95.237 0 255 0
2.46005 -3.5189 96.844 0 255 0
3.91745 0.534911 99.8118 0 255 0
-3.94274 0.290914 102.052 0 255 0
-2.04944 -4.90479 98.9953 0 255 0
2.22251 2.57285 95.6925 0 255 0
-0.477234 0.128873 100.494 0 255 0
-1.30199 4.98313 99.9471 0 255 0
2.419 -0.236183 96.9181 0 255 0
2.97361 1.29336 97.5759 0 255 0
-0.579266 -1.54215 95.65 0 255 0
-4.97403 -2.55984 101.192 0 255 0
-3.74105 1.77686 101.041 0 255 0
1.80019 3.92562 102.441 0 255 0
4.89448 1.57868 98.8418 0 255 0
3.23368 -0.308299 104.662 0 255 0
-3.13792 -0.825097 101.322 0 255 0
4.78344 -3.70426 95.1747 0 255 0
2.14371 3.55687 101.147 0 255 0
1.2474 -0.687611 96.1876 0 255 0
-2.64677 3.45565 97.686 0 255 0
-1.81891 3.33034 99.6767 0 255 0
-2.39873 3.18768 99.0823 0 255 0
-1.48685 2.73993 99.693 0 255 0
-1.63891 -2.4374 104.933 0 255 0
-3.52175 -4.33765 98.3813 0 255 0
-1.72993 -1.83202 102.601 0 255 0
2.33933 4.58309 99.2729 0 255 0
-4.4699 -0.61651 102.551 0 255 0
-2.30924 -2.06721 101.693 0 255 0
-3.86364 3.49828 95.861 0 255 0
-2.496 0.957974 101.617 0 255 0
-1.43595 -3.00029 102.32 0 255 0
4.49366 3.91539 104.573 0 255 0
-2.18817 3.63236 102.345 0 255 0
-4.24532 2.78827 95.2583 0 255 0
3.25897 -0.928413 100.716 0 255 0
4.66543 -0.267429 100.622 0 255 0
-2.15232 3.13983 102.262 0 255 0
2.2073 1.02701 95.3719 0 255 0
0.87666 2.39714 103.413 0 255 0
-4.50864 -2.4435 103.43 0 255 0
-0.443338 2.05675 98.1669 0 255 0
-4.92104 -2.23258 103.747 0 255 0
0.983778 0.877562 104.697 0 255 0
4.48473 4.51762 99.2866 0 255 0
-2.32114 1.36172 102.133 0 255 0
-0.676724 3.15651 104.853 0 255 0
0.477531 1.48254 100.559 0 255 0
3.33214 -4.90449 97.3393 0 255 0
1.14044 4.39129 97.7938 0 255 0
-3.0447 -1.80785 102.304 0 255 0
3.97719 4.62076 98.4838 0 255 0
3.58338 -0.219558 102.165 0 255 0
0.0893526 -0.862343 96.701 0 255 0
2.99311 -0.514339 101.804 0 255 0
-2.05859 -2.93583 96.631 0 255 0
1.88819 -1.19354 98.8536 0 255 0
-2.14676 -0.384866 97.0802 0 255 0
-0.640732 -1.36909 97.9524 0 255 0
3.45666 -3.07721 103.31 0 255 0
-1.71603 1.52206 104.051 0 255 0
0.330037 -2.28234 96.0525 0 255 0
-1.21583 4.0882 104.844 0 255 0
2.27488 -4.54256 103.694 0 255 0
-3.90404 -0.00899341 96.7457 0 255 0
-3.4293 3.17965 104.331 0 255 0
-2.15048 2.52909 98.9386 0 255 0
0.91627 3.43529 100.144 0 255 0
2.45783 -4.95399 95.7004 0 255 0
2.88277 4.72387 102.513 0 255 0
-3.73585 -1.16481 96.7777 0 255 0
-2.9989 1.45655 101.371 0 255 0
-1.4536 -1.98594 96.1771 0 255 0
2.93066 1.77847 102.303 0 255 0
-1.41733 0.151615 96.5806 0 255 0
4.76257 -3.95156 97.4122 0 255 0
0.673773 3.63477 103.298 0 255 0
-4.32655 -3.03268 104.046 0 255 0
-2.78548 2.55588 101.075 0 255 0
-3.7355 -1.5426 101.704 0 255 0
2.32257 2.27305 95.5964 0 255 0
-2.6865 -4.48059 99.7951 0 255 0
-0.0834805 2.13859 100.328 0 255 0
3.29048 4.58388 98.6536 0 255 0
-0.805075 0.895232 97.1916 0 255 0
-0.00493463 2.02048 95.0435 0 255 0
1.22357 -2.67859 95.6744 0 255 0
-3.68788 0.335965 99.4098 0 255 0
4.54368 1.96309 103.978 0 255 0
-2.0478 -1.96226 102.373 0 255 0
-1.91638 2.90848 102.86 0 255 0
2.30009 -2.05943 97.1617 0 255 0
-4.66331 -2.49091 103.06 0 255 0
-1.43938 -1.40544 97.7907 0 255 0
4.46947 -0.776004 98.4863 0 255 0
-1.17422 -2.19442 96.8624 0 255 0
-3.07027 -3.83143 103.803 0 255 0
-0.994048 -4.86013 101.276 0 255 0
-0.227038 2.88936 96.0391 0 255 0
-0.573467 -3.40547 103.629 0 255 0
-0.678299 4.30351 103.687 0 255 0
-1.8327 3.38603 104.066 0 255 0
-1.84348 -0.883491 95.022 0 255 0
-4.69545 0.99115 95.958 0 255 0
-0.0839075 -2.06588 96.6721 0 255 0
-1.78486 -2.49679 99.927 0 255 0
2.15157 -4.79177 95.5754 0 255 0
-2.20454 -2.80546 96.0692 0 255 0
-2.49296 3.20261 96.5072 0 255 0
0.119607 -0.567865 100.061 0 255 0
-2.44283 -3.30267 101.858 0 255 0
1.67874 -0.469112 99.7766 0 255 0
1.4336 2.1945 99.4225 0 255 0
4.08248 3.6457 95.8944 0 255 0
4.19998 -4.24898 99.5858 0 255 0
-0.310365 3.21555 104.656 0 255 0
-4.56667 4.29262 104.72 0 255 0
-4.38302 1.89333 102.145 0 255 0
-0.838187 -3.94979 97.2848 0 255 0
-4.69887 -2.72837 103.339 0 255 0
3.10669 -1.03272 98.5901 0 255 0
1.98017 1.81206 103.034 0 255 0
3.56745 -4.2009 102.836 0 255 0
-1.13972 -0.233903 98.4736 0 255 0
-3.7392 1.28021 103.896 0 255 0
-0.0344398 4.53505 98.1767 0 255 0
4.13895 0.837299 100.455 0 255 0
-2.14815 1.84492 95.3879 0 255 0
3.35233 -3.31309 103.552 0 255 0
4.18319 3.54405 104.875 0 255 0
1.58798 3.45995 96.7483 0 255 0
2.59819 -0.85908 96.4636 0 255 0
-1.12613 -0.616836 103.16 0 255 0
1.79646 -1.05512 99.4619 0 255 0
-2.89905 -3.56872 96.736 0 255 0
4.295 -2.51515 96.1534 0 255 0
-3.0092 -0.810029 101.512 0 255 0
1.78767 0.452921 96.9417 0 255 0
1.47972 -4.82429 96.3038 0 255 0
-4.72462 0.459065 103.508 0 255 0
-1.69016 1.08281 95.1909 0 255 0
3.38119 -2.54991 104.29 0 255 0
2.37429 3.70574 100.67 0 255 0
-4.94016 0.000141469 102.647 0 255 0
4.81401 3.71372 101.781 0 255 0
3.88321 0.882807 98.3107 0 255 0
0.963267 3.82195 95.2692 0 255 0
0.593153 4.09825 101.908 0 255 0
4.08731 -4.20805 100.522 0 255 0
-1.82456 3.81377 103.782 0 255 0
3.16595 3.37656 98.1585 0 255 0
4.50249 1.83586 100.144 0 255 0
4.58086 0.656703 100.2 0 255 0
-2.25982 -2.55945 101.822 0 255 0
3.85659 0.320381 96.1928 0 255 0
2.92539 -1.04655 104.502 0 255 0
-2.05366 1.14783 103.993 0 255 0
-4.21602 0.634226 98.1647 0 255 0
3.0208 -1.75444 96.9478 0 255 0
-0.328245 -2.1293 95.0379 0 255 0
-4.91292 -1.20454 95.6775 0 255 0
-4.43559 -1.45674 98.5911 0 255 0
-1.49432 4.52197 95.0594 0 255 0
-3.46895 -0.0480317 97.5982 0 255 0
-0.628858 2.95511 101.351 0 255 0
3.92258 4.84795 101.756 0 255 0
1.38043 -0.348446 100.451 0 255 0
1.51962 -1.55905 96.5007 0 255 0
-4.82126 0.852878 101.657 0 255 0
-2.39822 -0.124006 97.1059 0 255 0
-1.51631 -4.04402 102.115 0 255 0
2.4544 1.32032 96.8602 0 255 0
4.03426 -1.33163 103.84 0 255 0
0.547254 -1.76644 101.215 0 255 0
3.8401 -1.67777 103.886 0 255 0
4.34272 -4.47552 101.06 0 255 0
-4.48139 -2.09317 99.8717 0 255 0
-4.58483 -1.12144 103.506 0 255 0
-4.24846 -1.1816 102.275 0 255 0
-1.51602 -0.983358 101.783 0 255 0
0.887567 0.635352 100.42 0 255 0
-0.139586 -2.7271 99.4346 0 255 0
3.77749 4.83231 100.067 0 255 0
-2.97353 1.46591 95.6621 0 255 0
2.13839 -0.267117 101.674 0 255 0
-4.15983 0.240787 102.448 0 255 0
-1.15844 2.36447 102.935 0 255 0
-3.89709 3.35809 96.7434 0 255 0
-1.93124 -1.33307 96.0962 0 255 0
3.4899 3.20974 104.012 0 255 0
4.06599 -4.09481 96.6463 0 255 0
2.77174 -4.82857 101.19 0 255 0
0.244651 -4.62428 102.306 0 255 0
0.415109 4.28003 102.76 0 255 0
-3.72325 -0.692966 103.759 0 255 0
3.89875 -1.88129 102.99 0 255 0
3.8344 0.151658 100.975 0 255 0
-2.47344 1.54523 102.856 0 255 0
-1.04055 -4.98946 99.6531 0 255 0
3.09147 1.94986 104.069 0 255 0
-1.17465 -4.24473 98.7185 0 255 0
-1.98598 -4.24109 98.7074 0 255 0
-2.28516 -0.476771 102.786 0 255 0
-1.31552 2.09376 100.056 0 255 0
-1.63588 4.83425 95.4688 0 255 0
1.71137 0.418887 104.776 0 255 0
4.22845 -0.636669 98.5672 0 255 0
1.53694 -2.76147 100.267 0 255 0
-1.74783 3.6438 98.7632 0 255 0
4.56465 4.73093 104.321 0 255 0
2.8397 -3.95291 97.3967 0 255 0
2.947 -0.623348 102.144 0 255 0
-0.931636 3.21065 102.023 0 255 0
-1.66014 -2.30665 104.419 0 255 0
-1.72793 -1.05958 102.35 0 255 0
-2.67141 2.00489 102.828 0 255 0
4.02279 0.0588981 98.4778 0 255 0
-4.78906 4.18349 97.0063 0 255 0
-3.81624 1.14554 101.507 0 255 0
-1.4723 -3.23338 104.201 0 255 0
-4.02298 3.35265 104.58 0 255 0
-2.20106 0.784952 98.9968 0 255 0
2.40577 -1.18206 99.6352 0 255 0
-1.91559 -4.64581 96.3689 0 255 0
3.43829 -3.15498 99.6367 0 255 0
-3.65154 -1.69594 99.0847 0 255 0
-4.60197 2.62103 95.1547 0 255 0
4.08681 4.60847 100.472 0 255 0
1.9054 -2.72529 99.2032 0 255 0
4.88259 -2.63732 101.488 0 255 0
1.07687 -0.123605 99.5935 0 255 0
1.8217 -1.49294 100.96 0 255 0
3.04409 -2.94041 103.55 0 255 0
4.60381 4.98827 103.841 0 255 0
4.80446 1.0977 104.273 0 255 0
-3.79664 2.61037 96.027 0 255 0
3.25212 -0.742212 99.9897 0 255 0
4.82354 -2.78722 98.9909 0 255 0
1.55021 -3.75746 100.701 0 255 0
-3.47036 1.56229 98.2285 0 255 0
1.06734 -1.83463 98.0366 0 255 0
1.75095 -3.94393 98.9102 0 255 0
-2.94168 0.180005 98.1549 0 255 0
-4.63681 -0.805699 100.487 0 255 0
1.03373 -3.46737 102.321 0 255 0
2.86501 -4.2888 100.768 0 255 0
-1.53469 4.59082 103.53 0 255 0
-0.261534 2.65361 98.6408 0 255 0
2.29133 2.96679 95.4139 0 255 0
2.90726 -1.5762 97.9821 0 255 0
-2.48785 -1.65763 97.0341 0 255 0
3.22549 -2.60288 101.379 0 255 0
-1.63954 2.23665 104.288 0 255 0
0.87298 -3.54768 102.459 0 255 0
-4.16375 -4.83499 102.454 0 255 0
-0.534925 -4.1767 104.064 0 255 0
4.22175 -0.0651305 98.0763 0 255 0
-1.71797 1.30605 104.17 0 255 0
4.27704 -1.81989 101.555 0 255 0
4.43156 -4.43742 102.7 0 255 0
-0.675743 -1.72488 100.34 0 255 0
1.12402 -1.52505 96.5212 0 255 0
-0.229646 0.929046 103.157 0 255 0
3.17995 -2.60277 99.8813 0 255 0
3.55996 1.60946 100.772 0 255 0
-3.71641 0.516655 96.6133 0 255 0
-2.95388 3.14927 95.6386 0 255 0
2.78725 -4.83867 97.6038 0 255 0
-4.45778 0.0251372 101.221 0 255 0
2.62799 -1.66309 100.421 0 255 0
-1.06295 4.39187 95.9533 0 255 0
3.80562 1.07656 99.7546 0 255 0
-1.46437 1.97158 97.6752 0 255 0
-0.167329 -2.06958 96.5795 0 255 0
4.88182 0.487889 100.282 0 255 0
-0.0732816 2.34997 100.086 0 255 0
0.543447 -1.23489 103.954 0 255 0
4.25506 -0.307025 95.3464 0 255 0
-4.78703 -3.42848 98.3294 0 255 0
-1.65859 4.70309 101.187 0 255 0
4.48682 -4.89793 97.049 0 255 0
3.7363 1.55374 102.672 0 255 0
-4.02463 0.581359 97.1638 0 255 0
0.706839 4.52867 101.329 0 255 0
3.34818 -4.94287 101.467 0 255 0
-1.2547 2.93974 98.047 0 255 0
-4.3512 3.61805 103.072 0 255 0
-4.7602 -3.40311 99.7699 0 255 0
1.70264 -1.28097 95.3535 0 255 0
1.3085 2.1227 97.2954 0 255 0
2.55544 -1.77289 96.7611 0 255 0
3.26717 0.130328 98.1101 0 255 0
-1.10664 -0.39897 96.0938 0 255 0
0.682969 4.09805 101.613 0 255 0
-2.91028 -4.49982 101.136 0 255 0
-3.85422 2.61739 97.5059 0 255 0
1.17614 -0.439121 97.2644 0 255 0
4.5652 -4.38182 102.958 0 255 0
3.32764 -4.69603 101.685 0 255 0
-0.763448 -0.505201 104.23 0 255 0
2.00721 -4.52017 97.8986 0 255 0
1.81778 -1.12091 97.3062 0 255 0
-2.78331 -2.3313 100.381 0 255 0
1.57764 -1.99125 95.3386 0 255 0
1.66838 3.66865 103.139 0 255 0
-0.656364 -1.2765 104.233 0 255 0
0.172492 0.616584 102.57 0 255 0
1.21545 3.87825 100.52 0 255 0
-2.88545 -2.38442 98.4542 0 255 0
1.21341 0.235053 99.2369 0 255 0
4.06966 2.66579 100.107 0 255 0
-2.78182 -1.34085 102.104 0 255 0
-1.78489 -2.44339 100.346 0 255 0
1.96084 0.958381 102.251 0 255 0
4.26949 -2.17238 104.824 0 255 0
0.727775 2.01206 100.336 0 255 0
-1.58635 -0.257315 104.08 0 255 0
-1.07772 2.61537 101.657 0 255 0
3.54828 2.33007 96.8962 0 255 0
3.62993 -1.55714 104.348 0 255 0
2.1115 0.340524 95.0616 0 255 0
-0.0190134 4.13341 100.293 0 255 0
-4.30024 4.26767 99.5529 0 255 0
2.20057 2.44213 97.6985 0 255 0
-3.40126 1.53575 99.7826 0 255 0
4.05687 0.785713 99.3931 0 255 0
-0.761225 -3.12318 97.7831 0 255 0
-3.71668 -0.704552 104.805 0 255 0
0.641886 -4.55921 97.4116 0 255 0
-1.02686 2.14497 96.4475 0 255 0
2.75177 3.5977 101.817 0 255 0
-3.52038 4.98255 101.847 0 255 0
3.79703 -2.9295 102.882 0 255 0
-4.44178 3.64061 97.151 0 255 0
-2.26841 -3.91471 97.5129 0 255 0
3.86432 -3.74064 96.6345 0 255 0
-4.96394 1.50519 96.8006 0 255 0
-3.24841 2.69203 104.332 0 255 0
-3.37499 4.73292 103.903 0 255 0
-3.11251 -4.72313 97.6968 0 255 0
3.19279 -0.619397 97.5268 0 255 0
1.8479 -2.75493 99.7962 0 255 0
2.3427 -4.87097 97.554 0 255 0
-3.14747 -1.96992 102.141 0 255 0
4.361 3.83324 99.2888 0 255 0
4.81315 1.16975 101.178 0 255 0
4.65018 -0.0608316 95.2882 0 255 0
2.18058 -1.024 104.177 0 255 0
0.799091 -2.34903 104.523 0 255 0
-1.34858 -4.13465 101.527 0 255 0
3.77132 1.58907 104.528 0 255 0
1.13463 4.85378 103.752 0 255 0
-2.47509 -1.17499 96.8555 0 255 0
-3.30475 -3.14613 99.0281 0 255 0
-1.93132 4.50493 104.345 0 255 0
-0.226167 -1.03801 98.3355 0 255 0
-0.183352 2.87248 104.094 0 255 0
3.13376 3.46249 102.445 0 255 0
-4.10352 -3.22499 100.443 0 255 0
4.92348 -1.89682 100.965 0 255 0
3.5807 1.00117 97.0396 0 255 0
1.33863 3.38432 95.8648 0 255 0
-0.674513 1.63589 100.632 0 255 0
-4.69151 1.63311 97.2937 0 255 0
2.09979 3.61624 95.518 0 255 0
3.29408 1.57338 99.4584 0 255 0
-4.83891 3.08302 98.1484 0 255 0
-1.2021 2.01232 99.6359 0 255 0
-3.93353 -0.556754 101.961 0 255 0
4.3363 -0.0971252 103.512 0 255 0
-3.40841 4.92665 102.122 0 255 0
-2.59088 1.53971 97.4472 0 255 0
-1.56664 3.69726 104.949 0 255 0
1.16388 3.02879 95.1184 0 255 0
3.68247 3.8409 97.171 0 255 0
-3.05863 4.74424 95.1424 0 255 0
2.22722 -1.33777 103.784 0 255 0
1.26918 3.85351 103.292 0 255 0
4.94304 -1.03295 100.93 0 255 0
-4.2369 4.67922 100.989 0 255 0
1.95277 2.51597 95.2052 0 255 0
-4.30061 -1.0269 99.4864 0 255 0
0.667481 -1.8622 95.0859 0 255 0
-3.499 -2.75445 102.086 0 255 0
-0.725345 4.91167 103.957 0 255 0
2.04541 2.69059 96.9915 0 255 0
1.45159 3.88888 98.4914 0 255 0
0.608643 1.8903 104.504 0 255 0
4.24508 -4.16388 99.4306 0 255 0
2.26913 -0.0658825 103.751 0 255 0
3.15172 4.76073 103.251 0 255 0
2.65567 0.478437 104.558 0 255 0
-0.433506 -2.18761 100.27 0 255 0
4.31341 0.405217 100.5 0 255 0
0.288276 -2.50644 102.97 0 255 0
3.15775 3.26279 103.161 0 255 0
-2.56432 0.280781 104.776 0 255 0
-2.14865 -3.40035 104.698 0 255 0
2.0242 4.53061 96.0487 0 255 0
4.10816 -4.15175 104.21 0 255 0
-0.353233 -4.29554 102.488 0 255 0
-2.68256 -3.98892 101.442 0 255 0
-0.588263 3.54795 98.4331 0 255 0
-0.574327 4.2323 96.2162 0 255 0
3.42264 1.82056 95.5441 0 255 0
-1.39914 1.82577 100.163 0 255 0
4.78464 -0.811291 104.202 0 255 0
-2.23931 -1.91017 95.2455 0 255 0
2.62268 4.78242 102.782 0 255 0
-4.07035 -1.31734 101.601 0 255 0
-0.346591 3.85556 103.569 0 255 0
-0.234415 -4.2871 100.561 0 255 0
-3.61471 -0.27056 100.131 0 255 0
2.98621 -1.85358 101.473 0 255 0
1.25016 -0.18712 104.085 0 255 0
2.44072 1.97875 98.8408 0 255 0
-4.78982 -3.4624 103.296 0 255 0
4.73222 -0.583784 99.9111 0 255 0
2.9866 4.87437 95.6111 0 255 0
-4.46646 1.39094 99.2071 0 255 0
-0.0592223 -3.79884 97.7452 0 255 0
0.364168 -3.86875 102.254 0 255 0
2.45187 1.31107 99.6903 0 255 0
3.76374 -3.18174 100.325 0 255 0
4.20565 1.76523 100.679 0 255 0
0.252556 -3.00658 102.3 0 255 0
3.67298 -2.28192 96.3406 0 255 0
1.17653 3.64008 99.2375 0 255 0
0.225154 0.707734 98.1927 0 255 0
-2.00923 2.02749 101.558 0 255 0
2.58924 -4.37924 98.9811 0 255 0
2.00706 4.98772 99.6612 0 255 0
3.04475 -3.3856 102.15 0 255 0
3.92346 3.76401 102.65 0 255 0
0.60831 -2.96364 97.86 0 255 0
4.54043 -0.339798 95.0218 0 255 0
-2.78037 2.22477 104.855 0 255 0
-1.51827 -2.79641 102.417 0 255 0
-1.27607 -3.9048 104.782 0 255 0
3.13385 2.24601 98.2347 0 255 0
2.25281 4.19539 103.089 0 255 0
-2.87899 -3.65837 97.406 0 255 0
0.0728066 -1.44754 101.885 0 255 0
2.5415 4.60944 96.8708 0 255 0
-4.7603 2.13001 102.17 0 255 0
-0.221318 1.31521 95.0759 0 255 0
1.70232 1.53169 103.85 0 255 0
-4.18009 2.27202 102.981 0 255 0
4.11266 2.44559 95.9565 0 255 0
-0.296664 4.46679 101.679 0 255 0
-1.39951 3.29508 99.8402 0 255 0
-2.2478 0.132593 98.7412 0 255 0
-4.81811 0.763334 95.4351 0 255 0
2.82169 4.37744 98.3487 0 255 0
-0.426637 -1.49556 100.48 0 255 0
1.93454 2.76768 100.928 0 255 0
-2.96242 2.09157 99.5762 0 255 0
-1.87965 -1.68977 104.461 0 255 0
2.88674 0.161387 95.9278 0 255 0
-3.80343 0.0185392 96.08 0 255 0
2.99894 -2.07437 100.677 0 255 0
4.22941 -4.13001 96.8109 0 255 0
3.55273 -0.875039 98.3037 0 255 0
-1.32852 -0.479426 96.2039 0 255 0
-1.57306 -4.29475 96.5237 0 255 0
-0.89253 3.29459 102.713 0 255 0
-3.82533 -4.39973 104.246 0 255 0
4.98444 -1.01674 98.4736 0 255 0
0.26258 -0.178206 100.578 0 255 0
0.345489 0.280689 103.732 0 255 0
4.68328 -2.85377 102.141 0 255 0
-1.51123 1.66249 98.9556 0 255 0
3.04102 0.175551 97.0647 0 255 0
-2.91403 4.56647 101.728 0 255 0
4.48487 -3.81943 102.046 0 255 0
-0.0681925 2.37349 100.789 0 255 0
-1.1569 2.16094 103.079 0 255 0
3.4302 4.81421 97.6967 0 255 0
4.11226 0.540054 101.259 0 255 0
-1.37841 -4.26532 100.907 0 255 0
4.17711 -0.0874087 103.04 0 255 0
-3.29599 2.46199 104.318 0 255 0
-4.48433 -2.47995 99.5543 0 255 0
4.74293 -2.79527 102.914 0 255 0
4.57125 -0.74283 104.888 0 255 0
0.640513 2.14991 104.261 0 255 0
1.67405 4.37289 96.0675 0 255 0
-4.74826 -4.89664 95.0498 0 255 0
4.96363 -4.91691 99.2713 0 255 0
-1.07936 3.90984 97.1646 0 255 0
0.713792 0.643038 100.546 0 255 0
1.48761 -0.383731 95.395 0 255 0
-0.868527 1.07033 96.7348 0 255 0
-0.413984 2.50594 100.35 0 255 0
4.31248 -1.29868 101.213 0 255 0
-0.0991676 -2.01591 96.773 0 255 0
-2.06749 4.64387 97.3601 0 255 0
-1.15257 0.307594 99.4668 0 255 0
-0.849186 0.23806 100.12 0 255 0
-1.31154 -2.95731 99.3488 0 255 0
4.82633 1.37403 95.5373 0 255 0
-3.38229 2.4125 95.5122 0 255 0
-0.209295 4.75715 101.505 0 255 0
-0.756345 0.675747 100.532 0 255 0
4.33844 -0.167852 102.312 0 255 0
-2.3232 -4.44091 104.053 0 255 0
2.62608 -0.911821 97.6349 0 255 0
-3.97624 0.58444 102.034 0 255 0
4.71951 -0.0892472 104.212 0 255 0
-0.378573 1.25172 96.5557 0 255 0
1.45259 1.8819 96.7571 0 255 0
-0.168059 -2.55495 98.023 0 255 0
-0.622608 -0.251589 96.5434 0 255 0
3.03846 -3.72253 100.371 0 255 0
4.66169 3.26 98.6381 0 255 0
-2.51847 4.71486 102.634 0 255 0
1.28215 -3.70572 101.171 0 255 0
-3.01334 -2.10231 96.7272 0 255 0
-1.22929 -0.673083 101.956 0 255 0
2.25922 -1.70297 95.7678 0 255 0
-1.95067 4.77321 100.029 0 255 0
0.603292 4.24797 98.0878 0 255 0
-2.3975 0.312252 101.375 0 255 0
-3.7047 -4.04349 103.212 0 255 0
-0.986416 1.34692 98.0111 0 255 0
0.643399 -3.18302 101.425 0 255 0
2.51046 3.10501 97.2821 0 255 0
3.14022 0.0648797 104.008 0 255 0
1.6432 0.673327 96.5871 0 255 0
-1.21175 0.987237 98.1331 0 255 0
-0.498648 0.583941 99.2536 0 255 0
0.448129 2.66249 100.362 0 255 0
3.42662 -4.56931 102.205 0 255 0
-4.85525 -0.241634 104.658 0 255 0
4.44299 3.33692 104.04 0 255 0
-3.15953 0.995554 99.1553 0 255 0
2.24211 2.52521 97.9234 0 255 0
0.892744 1.97053 102.416 0 255 0
2.86386 2.84116 98.5313 0 255 0
-1.68817 -4.71421 97.2454 0 255 0
-2.41754 3.05617 96.1743 0 255 0
0.524551 1.28915 99.3803 0 255 0
-4.23731 -2.62927 103.973 0 255 0
-3.27687 -0.359697 99.0357 0 255 0
-1.57824 -1.4213 101.563 0 255 0
-0.876254 4.35858 99.7854 0 255 0
-0.298123 -1.70295 103.922 0 255 0
-2.66085 0.245643 95.012 0 255 0
-1.42766 -1.79763 99.7924 0 255 0
-2.27242 4.57399 96.4475 0 255 0
-1.07334 2.12215 103.223 0 255 0
-0.183267 3.50918 98.149 0 255 0
0.182114 3.25486 101.408 0 255 0
4.72118 0.191699 99.1008 0 255 0
-0.102482 -0.212651 96.3704 0 255 0
-3.40122 2.80931 101.633 0 255 0
-4.94656 1.26802 96.2619 0 255 0
2.83332 -0.133075 104.923 0 255 0
2.51879 -4.46831 100.498 0 255 0
-2.92213 0.538285 103.179 0 255 0
1.77323 -4.56188 99.3561 0 255 0
-1.06985 -1.95604 102.83 0 255 0
2.4381 -3.23726 95.0693 0 255 0
-1.5565 -1.05783 95.9077 0 255 0
-1.29993 -1.40958 104.303 0 255 0
-0.441084 2.96497 97.0567 0 255 0
-2.30714 -2.94754 95.4082 0 255 0
3.61249 -1.58592 103.737 0 255 0
-0.131113 3.03204 102.162 0 255 0
-0.112639 -2.03174 97.7061 0 255 0
2.43449 -2.72239 103.331 0 255 0
2.75984 2.66671 98.4971 0 255 0
0.034413 3.60034 100.523 0 255 0
1.05302 -3.46552 104.972 0 255 0
-2.50424 1.83166 102.789 0 255 0
2.14767 0.00337428 97.1427 0 255 0
-0.0916412 -3.39423 97.2828 0 255 0
1.89049 -0.340002 98.72 0 255 0
3.92681 -0.214161 104.6 0 255 0
4.21627 -1.88416 98.4889 0 255 0
1.14133 -4.35417 98.337 0 255 0
-1.07826 0.339881 104.356 0 255 0
-1.43644 -2.40611 95.4942 0 255 0
-2.73797 -4.39901 97.2763 0 255 0
-4.38001 -2.44789 98.7586 0 255 0
-2.12761 2.18616 98.242 0 255 0
0.581647 0.167017 98.3167 0 255 0
-1.11375 -1.55187 99.3124 0 255 0
3.4307 2.91845 99.102 0 255 0
-3.87737 4.9625 99.2545 0 255 0
-4.55551 0.24194 98.4747 0 255 0
-2.93668 -3.10211 103.336 0 255 0
-2.53671 2.01963 104.421 0 255 0
0.74637 4.19566 99.0674 0 255 0
0.851225 -1.76895 98.209 0 255 0
2.94538 2.87826 95.607 0 255 0
4.37707 -2.08112 96.0263 0 255 0
-0.301856 -3.6403 96.8711 0 255 0
-0.491686 4.04623 104.001 0 255 0
2.52005 3.39451 95.36 0 255 0
-3.96277 -2.93266 103.674 0 255 0
-2.24852 -3.34718 102.731 0 255 0
-1.07503 3.90089 99.5078 0 255 0
4.80792 -3.98759 96.3899 0 255 0
-0.290741 3.94573 96.4972 0 255 0
4.29962 -1.52585 97.72 0 255 0
3.79159 -1.22158 101.731 0 255 0
0.525232 3.45701 96.4277 0 255 0
-3.01912 -2.20347 101.708 0 255 0
0.497372 -3.77384 104.08 0 255 0
2.32383 4.50854 101.321 0 255 0
-0.953599 0.214207 102.615 0 255 0
-1.83345 2.00262 101.154 0 255 0
0.210962 -3.06925 95.1554 0 255 0
-0.36302 4.39619 103.554 0 255 0
3.95931 -1.09159 102.883 0 255 0
4.83947 0.475485 104.052 0 255 0
4.79819 1.46812 100.125 0 255 0
1.2264 0.470019 95.9982 0 255 0
-0.496107 2.64108 100.503 0 255 0
4.06922 -4.74145 97.3424 0 255 0
0.103936 2.59305 101.598 0 255 0
3.9013 -0.445014 97.556 0 255 0
-4.98164 -4.15594 103.572 0 255 0
-3.25196 3.66302 104.706 0 255 0
4.84235 0.0232413 95.6652 0 255 0
3.80956 1.45255 97.0356 0 255 0
-2.61697 -1.47053 103.813 0 255 0
0.170737 -0.580635 97.1202 0 255 0
-4.48292 -0.106039 96.885 0 255 0
-3.68945 1.68268 96.6483 0 255 0
0.944003 -3.2458 96.5552 0 255 0
-3.99143 -4.08666 98.3376 0 255 0
-1.55156 -2.24915 102.513 0 255 0
2.09202 1.1125 96.0224 0 255 0
-2.76142 0.227955 103.807 0 255 0
-4.80418 2.8236 100.313 0 255 0
0.0608106 -2.58638 100.657 0 255 0
-4.09843 3.13857 97.4889 0 255 0
1.65627 -4.64553 102.165 0 255 0
0.884605 -0.275554 101.344 0 255 0
-1.82924 -2.00313 99.7552 0 255 0
4.18071 1.82496 103.488 0 255 0
1.01222 -0.150197 101.359 0 255 0
4.73244 2.7502 104.989 0 255 0
-1.1927 2.78577 98.0269 0 255 0
-4.77051 3.09114 96.1899 0 255 0
4.75274 -4.50969 100.902 0 255 0
-1.86902 2.83352 101.778 0 255 0
1.64689 -3.34093 103.187 0 255 0
0.478736 -2.88765 96.3459 0 255 0
3.57782 0.142963 99.8098 0 255 0
4.08233 3.04323 103.718 0 255 0
-1.73072 4.043 99.2403 0 255 0
-4.22659 -4.63705 101.169 0 255 0
0.265265 -1.4812 95.6014 0 255 0
0.470535 1.74142 99.9611 0 255 0
-4.99589 -0.468747 103.775 0 255 0
-2.9138 -2.1339 104.564 0 255 0
-3.5316 -2.16671 104.872 0 255 0
4.46172 -0.362273 96.3014 0 255 0
-1.18511 3.25959 100.757 0 255 0
-1.4213 2.52657 96.8696 0 255 0
2.00063 1.9088 102.793 0 255 0
-0.986794 4.25209 104.532 0 255 0
1.39006 1.02953 98.3348 0 255 0
2.6449 -2.82015 99.3268 0 255 0
-4.04269 -2.85934 101.203 0 255 0
4.16189 -0.695699 97.996 0 255 0
3.46372 2.86602 101.989 0 255 0
-4.64391 2.75005 104.402 0 255 0
-4.24597 -3.21082 95.6598 0 255 0
-1.73106 -3.04569 99.9452 0 255 0
-4.13006 2.75166 103.204 0 255 0
-0.136195 -0.0371766 100.436 0 255 0
-4.3363 -2.75082 97.8587 0 255 0
-3.57483 2.80815 99.9766 0 255 0
-0.813323 0.527068 99.4631 0 255 0
-0.374286 3.42543 99.6102 0 255 0
-0.10941 -1.55335 96.5979 0 255 0
-3.35197 -0.142059 98.1055 0 255 0
4.70389 4.1278 100.462 0 255 0
2.87115 3.10413 96.5522 0 255 0
-2.77645 -1.92493 95.1042 0 255 0
3.32228 0.146786 96.9842 0 255 0
-1.01493 3.21807 96.1428 0 255 0
0.761933 1.33325 103.585 0 255 0
0.387684 -0.450608 101.815 0 255 0
-0.387165 1.08096 102.403 0 255 0
2.63921 -0.152348 101.804 0 255 0
-0.617835 2.03041 104.558 0 255 0
2.33032 0.844159 98.5629 0 255 0
0.530562 -2.86892 102.201 0 255 0
-2.87031 0.501868 99.0395 0 255 0
-1.91022 -2.71931 100.375 0 255 0
3.99781 -0.118214 98.8385 0 255 0
-3.71246 -2.76612 100.004 0 255 0
3.39759 -0.0154286 102.295 0 255 0
-4.92297 0.773376 96.699 0 255 0
-2.909 -3.16963 99.1135 0 255 0
-2.95156 0.224488 100.611 0 255 0
-0.55305 -2.2888 98.1153 0 255 0
-0.173153 -2.35034 101.102 0 255 0
-0.510861 0.383661 98.8847 0 255 0
0.774497 -4.79042 96.7454 0 255 0
-3.61929 -4.07787 104.196 0 255 0
-1.93095 -0.380106 104.094 0 255 0
-2.25991 1.30338 100.086 0 255 0
-3.98211 -4.65649 95.5546 0 255 0
-1.05078 4.80023 99.5582 0 255 0
3.42097 -0.806282 100.619 0 255 0
0.587668 -4.15592 103.112 0 255 0
3.50398 0.443499 102.764 0 255 0
4.96605 0.924995 100.302 0 255 0
0.316579 4.97936 99.1324 0 255 0
4.42518 4.29758 101.211 0 255 0
0.942398 -4.19662 100.644 0 255 0
3.83159 -2.82286 99.8921 0 255 0
-3.92038 -0.20116 101.673 0 255 0
3.8938 -0.66514 104.335 0 255 0
-4.70783 -0.436323 101.981 0 255 0
4.16894 0.109793 97.8604 0 255 0
0.64276 -0.919182 95.8941 0 255 0
0.656578 4.78577 99.249 0 255 0
4.64038 4.09292 95.5499 0 255 0
-1.35276 3.36087 96.4796 0 255 0
0.288825 -4.89714 99.8148 0 255 0
-1.74713 -2.432 95.1852 0 255 0
2.84991 -3.69868 102.656 0 255 0
4.5346 2.54783 102.55 0 255 0
-0.460449 3.56425 103.295 0 255 0
1.75549 0.853688 101.043 0 255 0
1.08475 2.76612 97.1078 0 255 0
0.83439 -2.98049 97.2257 0 255 0
4.7694 2.60924 96.603 0 255 0
-3.60406 4.97634 102.444 0 255 0
0.436989 -1.56617 96.2261 0 255 0
-0.776172 2.90944 96.1532 0 255 0
-2.14059 4.06809 103.184 0 255 0
1.5974 -4.12487 102.064 0 255 0
-1.86389 -4.13713 102.704 0 255 0
4.83562 -0.995628 100.355 0 255 0
1.03456 -2.83983 101.019 0 255 0
-4.99274 -1.33979 100.906 0 255 0
-3.04094 -3.78964 97.0686 0 255 0
1.35087 4.4074 96.8802 0 255 0
4.11962 -3.07683 98.0989 0 255 0
-2.23867 -4.38894 98.2143 0 255 0
-2.05118 1.45725 98.4457 0 255 0
-1.34914 2.60701 97.7816 0 255 0
-4.07559 -4.67854 96.4624 0 255 0
1.25754 -4.78501 103.6 0 255 0
2.64254 -4.28606 96.1958 0 255 0
-0.50357 3.89444 95.0527 0 255 0
-2.19399 -4.95687 95.397 0 255 0
1.0393 1.77287 101.743 0 255 0
-3.58767 -2.42083 100.373 0 255 0
-4.77367 -3.19763 102.319 0 255 0
3.42046 4.28811 103.7 0 255 0
-3.4099 3.47955 97.5395 0 255 0
2.30933 3.16707 103.779 0 255 0
-4.9298 -4.23146 95.5483 0 255 0
3.52163 2.14954 104.055 0 255 0
-2.18554 -2.68344 103.886 0 255 0
-4.50394 -3.81492 100.013 0 255 0
-4.97304 -3.51005 98.6912 0 255 0
4.64839 4.04529 97.4936 0 255 0
4.38915 0.4537 101.046 0 255 0
0.541044 -4.85355 95.6724 0 255 0
0.580401 -0.980496 102.355 0 255 0
4.32511 -0.152619 103.512 0 255 0
-4.31353 0.462424 101.497 0 255 0
2.78803 -3.3693 97.4021 0 255 0
1.76122 1.50035 103.469 0 255 0
0.358498 4.63496 100.773 0 255 0
1.87651 -2.99844 98.7857 0 255 0
2.99851 4.20833 97.3813 0 255 0
-1.84374 -3.27556 99.0118 0 255 0
0.530133 4.48794 100.783 0 255 0
-4.43961 -4.9682 96.8985 0 255 0
-4.96669 -2.52834 95.0534 0 255 0
-1.0878 0.786455 102.301 0 255 0
-3.22035 2.07989 102.91 0 255 0
-0.470179 -1.86486 102.264 0 255 0
-2.55888 1.22641 97.9471 0 255 0
0.374216 -1.10414 103.864 0 255 0
-0.261283 -3.58489 99.7402 0 255 0
0.184862 4.45596 102.632 0 255 0
4.92561 4.47429 102.536 0 255 0
-4.0104 -0.980012 104.065 0 255 0
4.43431 -3.82255 102.098 0 255 0
-2.20235 3.11954 104.466 0 255 0
-1.92831 2.38578 101.179 0 255 0
1.01432 -1.40634 102.901 0 255 0
3.97528 -0.753337 103.977 0 255 0
-2.36164 3.85693 104.835 0 255 0
1.05483 -4.22817 99.5237 0 255 0
-4.63754 -4.85458 96.9366 0 255 0
2.98277 0.918434 102.709 0 255 0
-4.68271 -1.51651 98.2852 0 255 0
-2.42996 3.27896 95.9185 0 255 0
-2.5759 -0.849431 101.767 0 255 0
-1.57472 -3.18172 102.755 0 255 0
2.19478 2.72905 99.4674 0 255 0
2.5373 0.744777 100.182 0 255 0
1.00454 -3.77224 96.7817 0 255 0
1.66519 2.50712 95.8907 0 255 0
-2.8128 -4.32518 96.6408 0 255 0
4.70088 3.48857 103.149 0 255 0
-3.39879 4.27042 99.5103 0 255 0
-2.70764 1.61486 97.6807 0 255 0
3.29037 4.83483 102.52 0 255 0
-2.17273 -3.9952 103.735 0 255 0
2.90331 -4.65577 103.354 0 255 0
2.76478 -0.945812 100.944 0 255 0
-0.846977 -1.74633 96.9613 0 255 0
-1.32126 -2.17871 98.0393 0 255 0
0.317005 2.96023 100.387 0 255 0
-4.4774 -4.44115 104.195 0 255 0
1.51425 4.28151 103.142 0 255 0
-0.209932 -1.96098 97.0147 0 255 0
-1.52989 0.787376 96.7347 0 255 0
3.21315 0.0746649 103.085 0 255 0
-3.065 -0.211948 100.312 0 255 0
-2.69111 1.48879 95.3105 0 255 0
2.97132 -4.80682 103.181 0 255 0
0.331197 4.02947 100.149 0 255 0
3.14616 2.44753 98.5953 0 255 0
0.26984 -1.34643 102.788 0 255 0
0.898208 2.27039 102.9 0 255 0
1.49153 1.1339 102.825 0 255 0
-4.93707 2.3127 101.665 0 255 0
1.80142 2.30872 98.0581 0 255 0
2.21213 4.76399 101.271 0 255 0
1.18951 -2.21419 99.9171 0 255 0
-4.0811 2.23386 95.5064 0 255 0
-0.136911 3.14594 103.347 0 255 0
-1.69016 -3.16534 95.2655 0 255 0
2.74285 3.05691 100.864 0 255 0
2.15358 -2.48901 97.4247 0 255 0
-3.23465 -2.38012 100.745 0 255 0
-4.2365 -4.76469 95.2854 0 255 0
1.01517 -4.80383 95.9743 0 255 0
-1.22866 -1.98349 98.8092 0 255 0
-2.16709 2.72843 100.001 0 255 0
-3.16694 -0.557425 97.7606 0 255 0
-2.23019 -1.05237 99.1877 0 255 0
4.52245 2.7169 102.302 0 255 0
-3.26992 2.50756 100.4 0 255 0
-2.98658 -2.56382 101.214 0 255 0
-4.74261 1.77078 104.988 0 255 0
-0.300208 3.01298 104.74 0 255 0
-4.15418 2.9316 95.0724 0 255 0
3.21115 0.954112 97.0763 0 255 0
-1.36352 4.4583 100.198 0 255 0
4.54418 1.69954 100.637 0 255 0
-4.06102 1.46568 99.4419 0 255 0
-2.25265 2.06809 100.568 0 255 0
-1.78034 3.46942 104.166 0 255 0
-1.5539 -0.519871 96.769 0 255 0
-2.64136 2.6831 97.6566 0 255 0
4.0291 -0.987491 103.963 0 255 0
1.72578 -3.06535 98.039 0 255 0
-4.18017 3.06095 104.629 0 255 0
-3.39169 -0.292465 98.9661 0 255 0
-0.244035 -3.85017 97.8676 0 255 0
-0.992882 4.34053 97.0523 0 255 0
4.72587 -3.29705 98.8639 0 255 0
2.90693 -4.07521 97.7669 0 255 0
-0.92996 -2.31 102.688 0 255 0
0.103955 3.583 103.512 0 255 0
1.93087 4.41175 95.9696 0 255 0
-4.58775 -0.513121 96.4714 0 255 0
-0.214802 2.60076 104.194 0 255 0
-0.480674 2.31696 101.028 0 255 0
4.15502 -3.65288 96.13 0 255 0
-1.624 -2.85568 95.7548 0 255 0
-1.92855 0.223156 96.2286 0 255 0
-3.78899 0.45624 95.2092 0 255 0
-3.68919 0.571796 99.4072 0 255 0
-2.49963 -3.30561 98.6179 0 255 0
-3.16374 0.428614 96.3686 0 255 0
3.64784 2.89868 95.7804 0 255 0
1.92188 2.61666 97.8857 0 255 0
-3.24043 -2.56467 101.444 0 255 0
2.19539 -2.16851 104.639 0 255 0
-4.93008 2.01531 103.262 0 255 0
2.77685 0.0477751 103.142 0 255 0
-4.44812 -3.44094 103.959 0 255 0
1.86999 -0.891329 104.373 0 255 0
-3.84802 4.51203 101.617 0 255 0
4.26105 -2.86253 101.283 0 255 0
-4.10425 3.87381 101.853 0 255 0
3.46242 3.20774 100.234 0 255 0
1.46975 4.34625 102.604 0 255 0
-3.95855 2.61218 104.315 0 255 0
4.47586 0.240252 96.4419 0 255 0
-3.77267 -2.07537 102.065 0 255 0
1.88797 -3.50127 104.612 0 255 0
3.42401 -4.87546 101.516 0 255 0
-1.99344 -2.61804 100.597 0 255 0
1.01126 -1.38574 100.163 0 255 0
-0.974116 -1.54512 101.899 0 255 0
-4.49447 -0.680446 97.0487 0 255 0
-2.27403 -0.318814 97.1757 0 255 0
2.05445 1.81165 103.781 0 255 0
-2.4964 -2.77647 96.078 0 255 0
-3.23983 -3.10307 97.5091 0 255 0
2.20512 -2.03075 95.8744 0 255 0
3.08846 -0.989442 96.9267 0 255 0
0.819066 1.92665 98.9927 0 255 0
4.78246 1.26387 97.3484 0 255 0
2.5942 0.828635 98.5887 0 255 0
-2.54047 -3.24465 100.577 0 255 0
-0.815838 0.153625 103.699 0 255 0
2.95968 1.02386 103.258 0 255 0
3.90882 -1.40957 96.6947 0 255 0
0.0521099 -2.07979 95.1568 0 255 0
-2.14248 -3.37996 101.891 0 255 0
1.4948 0.308193 98.9795 0 255 0
0.258622 -0.738205 96.7855 0 255 0
2.35972 -4.64958 99.9599 0 255 0
3.2009 -2.33052 100.891 0 255 0
-3.72147 3.39638 95.4515 0 255 0
0.145996 -2.10132 95.8977 0 255 0
0.267179 2.90065 104.757 0 255 0
2.53348 4.05666 103.299 0 255 0
2.22095 2.45614 102.531 0 255 0
3.08905 2.08995 95.3603 0 255 0
-0.755567 -1.26189 101.639 0 255 0
4.41729 -4.35111 102.637 0 255 0
-0.219828 -2.2496 96.5093 0 255 0
-1.19175 -0.897273 97.1529 0 255 0
1.69969 0.127282 101.422 0 255 0
3.61678 -1.2148 95.0901 0 255 0
-1.2025 -0.779554 96.0368 0 255 0
-1.87766 2.15872 102.733 0 255 0
3.66217 -3.98412 100.719 0 255 0
-2.4311 3.0776 96.9647 0 255 0
-2.59428 -2.37552 100.514 0 255 0
-2.98416 0.944687 103.643 0 255 0
3.64097 1.0104 101.171 0 255 0
-0.903917 -2.39336 98.4528 0 255 0
3.93382 3.21065 103.183 0 255 0
-1.80064 -4.45074 96.6517 0 255 0
-3.41752 2.64386 100.32 0 255 0
-0.429822 -4.10672 101.38 0 255 0
4.60366 2.08968 104.977 0 255 0
-0.662344 0.414961 101.712 0 255 0
-1.64533 4.88627 100.052 0 255 0
0.391694 2.87579 96.6485 0 255 0
3.87174 -0.480795 97.3892 0 255 0
3.38073 1.68852 97.2792 0 255 0
-0.0605975 0.0570968 96.9889 0 255 0
-0.394241 3.31989 97.5596 0 255 0
-0.931001 -0.871722 95.0737 0 0 255
-2.50601 -3.89676 104.662 0 0 255
-2.5595 -1.23866 101.129 0 0 255
-4.08507 4.33433 99.6346 0 0 255
3.27506 -2.11304 96.0402 0 0 255
0.424259 -0.818816 97.3259 0 0 255
3.3052 3.11023 97.8171 0 0 255
2.77752 2.17409 104.292 0 0 255
1.38266 3.37711 103.127 0 0 255
-3.35666 4.24343 103.848 0 0 255
-2.90923 -0.332061 96.1763 0 0 255
-1.46373 2.09725 96.1188 0 0 255
-1.63163 -1.36671 100.436 0 0 255
1.4282 -3.73492 102.306 0 0 255
2.69872 -2.89705 95.7182 0 0 255
-4.91116 2.1333 98.9971 0 0 255
-1.34305 0.283192 98.0436 0 0 255
0.166157 -3.91227 104.565 0 0 255
1.66509 4.80066 95.6517 0 0 255
0.491633 3.88842 101.455 0 0 255
-2.44813 4.40459 100.86 0 0 255
2.91892 4.30226 99.7078 0 0 255
-2.56901 2.3194 101.035 0 0 255
-3.16241 -0.310208 97.4747 0 0 255
1.55482 1.45128 103.046 0 0 255
-1.64814 -1.29547 102.785 0 0 255
-0.739631 2.10609 95.2673 0 0 255
0.811477 3.62744 97.3568 0 0 255
-0.557445 3.94217 100.193 0 0 255
-0.561377 -3.9394 101.491 0 0 255
2.78278 -2.55094 98.2803 0 0 255
-3.52366 -2.31452 97.7572 0 0 255
-4.29839 2.62564 98.7198 0 0 255
-2.29379 2.83019 104.098 0 0 255
-0.0927549 -1.97463 100.005 0 0 255
-1.23733 1.85025 103.519 0 0 255
-2.03322 2.59541 99.021 0 0 255
-2.28173 2.03412 99.2592 0 0 255
-0.0117095 -2.24208 96.6635 0 0 255
1.19365 2.95059 97.4649 0 0 255
1.83295 -4.38854 101.289 0 0 255
-3.93456 4.23793 95.2186 0 0 255
-0.204972 -3.32515 101.973 0 0 255
-1.26845 -1.80449 104.19 0 0 255
-3.96275 1.75113 96.4538 0 0 255
4.20153 2.0552 104.555 0 0 255
-1.74857 1.016 97.502 0 0 255
-1.45218 -2.22968 102.289 0 0 255
-4.98892 -0.185017 96.8678 0 0 255
-1.6304 -3.38744 104.491 0 0 255
3.72356 2.98432 99.133 0 0 255
4.16121 -4.11179 95.1622 0 0 255
-4.83294 1.05878 99.4611 0 0 255
0.329322 2.64643 100.772 0 0 255
-4.76744 -4.41209 101.679 0 0 255
1.5426 -1.50952 95.5396 0 0 255
4.61222 -0.517479 103.154 0 0 255
-1.96893 -2.07331 98.4067 0 0 255
-2.02984 0.858443 97.6652 0 0 255
-4.55378 -2.9278 103.416 0 0 255
0.457828 3.56249 104.788 0 0 255
0.0633534 -0.617567 98.9627 0 0 255
-4.74644 -0.0178035 101.556 0 0 255
-2.09065 4.2005 102.182 0 0 255
-1.78089 4.71853 96.5903 0 0 255
0.828525 1.14925 98.628 0 0 255
2.15906 0.59898 95.9262 0 0 255
1.46526 -3.54091 101.836 0 0 255
2.27675 0.093229 101.003 0 0 255
1.22491 -1.53324 96.1125 0 0 255
3.85456 -0.00345482 99.5794 0 0 255
3.25276 -3.78285 98.7008 0 0 255
-3.36139 -0.23401 99.3891 0 0 255
2.47034 3.4575 98.2637 0 0 255
1.54128 1.32116 95.6049 0 0 255
-3.94821 1.61543 100.041 0 0 255
4.73103 -0.900856 96.8071 0 0 255
4.51439 -3.98213 102.224 0 0 255
-1.21403 -1.43946 104.641 0 0 255
1.95146 -4.81326 98.7771 0 0 255
3.4861 -0.667336 98.1509 0 0 255
4.04135 0.0577265 96.3075 0 0 255
4.44183 1.52395 100.793 0 0 255
0.995551 1.54709 95.4428 0 0 255
-4.69014 0.74677 104.127 0 0 255
3.21998 0.855248 103.092 0 0 255
-0.0751421 -3.18783 103.877 0 0 255
0.7996 2.7993 104.137 0 0 255
3.87329 4.76706 104.628 0 0 255
-1.30454 -0.838791 95.7447 0 0 255
3.72486 -0.167997 104.634 0 0 255
1.46334 -1.8231 98.0916 0 0 255
4.60325 -3.01573 98.6738 0 0 255
3.77073 1.67661 100.774 0 0 255
2.2474 -4.3391 101.295 0 0 255
0.571111 1.48915 100.212 0 0 255
2.35152 -0.937794 103.108 0 0 255
0.33781 2.63543 103.245 0 0 255
-0.966166 -0.664899 101.996 0 0 255
-1.57168 0.769339 101.763 0 0 255
0.96081 -3.80304 95.4114 0 0 255
-0.463007 -1.1706 100.027 0 0 255
-3.49226 -3.26027 98.699 0 0 255
4.43734 4.87994 99.4246 0 0 255
1.59565 -2.6219 100.747 0 0 255
-3.08116 -3.92788 102.496 0 0 255
2.52535 2.01851 97.2507 0 0 255
3.40833 3.32936 98.0543 0 0 255
-3.82871 -3.47505 97.84 0 0 255
-2.21754 -2.86121 95.8772 0 0 255
3.78296 -0.902772 100.093 0 0 255
-3.05078 -3.96877 103.262 0 0 255
-1.78668 4.3989 102.392 0 0 255
-2.35884 2.44831 99.24 0 0 255
-2.6324 3.39268 96.6688 0 0 255
1.55392 0.995863 103.522 0 0 255
0.610386 0.63328 96.3639 0 0 255
-3.79385 -4.00081 99.9397 0 0 255
-2.86789 1.91099 104.965 0 0 255
-1.48867 -2.78856 102.855 0 0 255
1.84593 -2.66762 95.4983 0 0 255
-3.33425 1.83344 104.614 0 0 255
-3.34885 0.757458 100.195 0 0 255
4.89216 -3.88781 98.5027 0 0 255
3.15554 -3.00134 99.4897 0 0 255
-2.84583 4.96041 104.317 0 0 255
-3.06179 -3.95172 102.854 0 0 255
2.58469 1.24776 104.919 0 0 255
-4.27332 -1.59794 103.556 0 0 255
-3.18523 -3.52326 101.227 0 0 255
-2.17637 -2.53647 103.778 0 0 255
-4.99882 0.5801 98.1693 0 0 255
4.33461 -2.42928 101.363 0 0 255
2.42995 -1.71471 103.685 0 0 255
-4.91337 -4.63567 97.034 0 0 255
-1.2664 4.3878 99.1468 0 0 255
2.01412 0.646592 102.263 0 0 255
-4.9893 3.56285 97.9819 0 0 255
3.2645 4.5314 100.171 0 0 255
-1.91004 2.47191 101.377 0 0 255
-4.1467 -3.89347 103.938 0 0 255
-3.8922 -0.0644006 95.4711 0 0 255
4.87531 1.33314 96.9506 0 0 255
-2.74054 -2.77341 96.9141 0 0 255
3.18237 -1.72655 103.952 0 0 255
4.25949 -1.80893 104.795 0 0 255
-4.71286 2.31067 96.2674 0 0 255
-4.80423 -4.62047 102.57 0 0 255
3.21211 -3.24233 103.403 0 0 255
-2.42316 -1.85695 100.18 0 0 255
3.57549 -0.969091 96.4464 0 0 255
1.19237 -2.82341 95.9289 0 0 255
-4.01947 3.99013 98.8906 0 0 255
2.90853 4.68344 98.5877 0 0 255
3.10137 -0.0952127 97.827 0 0 255
-3.56221 3.58822 102.387 0 0 255
-0.350625 1.58247 100.824 0 0 255
0.820462 1.54845 96.9116 0 0 255
1.45825 0.202661 97.5056 0 0 255
0.908982 -1.16527 103.953 0 0 255
1.79568 3.70234 100.465 0 0 255
1.36889 -1.12006 97.1405 0 0 255
-3.16525 -4.91634 103.286 0 0 255
0.622449 -1.45105 97.9355 0 0 255
3.68622 3.87832 97.2061 0 0 255
0.936607 2.8819 97.6748 0 0 255
0.197951 -1.83542 100.957 0 0 255
3.07138 -3.76446 101.862 0 0 255
2.94908 1.47733 95.3971 0 0 255
-4.89788 3.73427 96.055 0 0 255
1.39234 -4.7934 100.541 0 0 255
4.80347 -0.504072 100.892 0 0 255
2.05868 -4.11213 101.884 0 0 255
4.41606 -4.31901 100.319 0 0 255
-3.96133 -4.85331 96.7216 0 0 255
-3.56584 -1.09514 101.488 0 0 255
-4.17509 -0.445271 96.9003 0 0 255
-3.91272 1.75006 99.5501 0 0 255
4.54853 2.47117 104.041 0 0 255
-1.02999 -0.6848 97.1884 0 0 255
-3.29809 2.51658 95.9029 0 0 255
1.55082 1.19173 99.2691 0 0 255
-4.96018 3.04389 96.9674 0 0 255
2.1564 -4.18824 97.7272 0 0 255
-4.46847 -0.343958 97.1952 0 0 255
2.82761 -1.95476 96.2482 0 0 255
1.72499 4.5573 103.091 0 0 255
4.55112 -1.18996 103.264 0 0 255
-4.26109 4.30489 100.357 0 0 255
-1.14538 0.849054 99.9696 0 0 255
1.59259 -2.50097 104.376 0 0 255
-1.42714 -4.15348 99.7636 0 0 255
-0.140942 0.256324 97.697 0 0 255
3.86454 -0.492907 99.5888 0 0 255
4.35402 -3.28696 99.6541 0 0 255
3.86914 4.98963 96.4376 0 0 255
-1.21389 4.13617 102.234 0 0 255
-1.20171 -4.38852 95.6001 0 0 255
0.0560365 1.41698 97.0294 0 0 255
-3.14963 -4.92523 98.019 0 0 255
-0.547013 3.58518 95.6682 0 0 255
-0.187621 1.15087 98.9595 0 0 255
-2.59044 4.21191 100.522 0 0 255
0.361311 -2.6289 100.025 0 0 255
4.76023 4.25148 101.01 0 0 255
4.26796 -1.95319 97.076 0 0 255
3.50944 2.38534 96.5679 0 0 255
-0.545566 3.72503 98.5424 0 0 255
0.0383135 -4.21361 98.0587 0 0 255
-2.17076 1.11867 104.566 0 0 255
2.81834 -2.38327 97.549 0 0 255
-3.64677 2.45017 98.9716 0 0 255
2.77869 3.42014 98.3946 0 0 255
-1.92758 4.65582 95.3962 0 0 255
-4.90647 -3.32545 98.7429 0 0 255
0.09899 0.353952 96.8257 0 0 255
-0.651608 -4.71763 103.692 0 0 255
-0.392369 -3.85859 100.806 0 0 255
3.448 1.93916 101.079 0 0 255
-4.21732 1.66949 99.8403 0 0 255
0.990158 2.35646 101.306 0 0 255
-1.06352 4.9873 95.4842 0 0 255
-3.99101 -2.56798 97.973 0 0 255
-0.606473 4.51517 98.6 0 0 255
4.86286 -3.42538 103.325 0 0 255
-0.567226 3.8191 100.022 0 0 255
-4.49339 3.2725 103.792 0 0 255
0.136843 -1.75393 102.255 0 0 255
2.11377 -4.55815 100.837 0 0 255
-3.46225 3.86564 100.147 0 0 255
-2.40259 3.48125 96.3408 0 0 255
-3.14427 -3.23016 96.3212 0 0 255
4.29946 3.40666 101.001 0 0 255
-0.954923 1.86345 104.473 0 0 255
-4.55253 -0.173174 96.4951 0 0 255
-1.81539 4.56226 101.154 0 0 255
4.60547 -1.16901 99.0224 0 0 255
-4.50624 -3.7929 97.913 0 0 255
3.34407 1.74001 99.7881 0 0 255
-2.22622 -0.503398 95.9558 0 0 255
1.83516 0.506972 99.1172 0 0 255
-1.95071 1.05728 99.6019 0 0 255
2.16048 3.88905 96.5916 0 0 255
4.12981 4.7424 101.62 0 0 255
-3.40325 1.1744 97.8864 0 0 255
2.28715 -3.08428 95.1935 0 0 255
-4.09002 0.116296 96.9249 0 0 255
-0.585988 -0.10921 98.6703 0 0 255
3.01348 -1.79623 97.4933 0 0 255
-4.83901 0.199103 97.3994 0 0 255
-3.40618 -1.42542 99.4754 0 0 255
2.02066 3.52879 97.7528 0 0 255
-3.29193 -1.31807 104.909 0 0 255
-4.63578 0.68447 97.2776 0 0 255
0.465357 -0.454714 97.8262 0 0 255
4.03356 0.92787 98.0103 0 0 255
4.54494 -1.61084 100.853 0 0 255
3.57187 4.527 95.4377 0 0 255
